ply
format ascii 1.0
comment PCL generated
element vertex 1484
property float x
property float y
property float z
element camera 0
property float view_px
property float view_py
property float view_pz
property float x_axisx
property float x_axisy
property float x_axisz
property float y_axisx
property float y_axisy
property float y_axisz
property float z_axisx
property float z_axisy
property float z_axisz
property float focal
property float scalex
property float scaley
property float centerx
property float centery
property int viewportx
property int viewporty
property float k1
property float k2
end_header
16.530275 28.735352 -376.67993
-55.808395 -98.566345 -413.88571
16.77709 34.217064 -380.54764
41.973419 -65.54702 -409.57892
19.531813 18.313255 -377.51596
93.76284 -54.400959 -413.48639
-108.62389 -4.0845685 -397.81677
69.902267 -4.582963 -413.48883
-74.370583 -0.44045952 -367.06671
1.6005765 -40.377228 -409.31415
20.691284 33.934742 -377.09225
-44.573624 -94.032501 -412.83591
-6.2415791 -6.2188659 -407.8801
-74.62175 -12.366958 -371.44794
59.252983 -53.40485 -424.33142
21.318655 20.490353 -375.35175
65.003525 -54.035122 -415.74448
-16.970327 -70.631142 -407.59293
-16.319464 -69.05098 -407.55331
-16.273539 -69.062309 -407.13803
70.090805 -7.882843 -413.72055
-0.33793414 -44.060028 -408.34665
95.808517 -39.051712 -399.39505
-19.557291 -83.076538 -407.45642
-48.994759 -96.500008 -412.62775
32.155502 -68.750862 -411.21271
-18.601053 -84.234718 -406.56668
-13.883842 36.497574 -409.595
-10.164481 -46.981251 -426.35452
-69.964935 -13.109244 -370.62039
-7.6947989 -45.580936 -422.07718
65.811592 6.2682066 -412.63538
-72.24836 -38.949852 -402.09174
-19.79203 -66.769241 -407.19211
23.680153 -69.305725 -411.12701
22.449133 -69.411201 -411.05859
-17.032789 -82.772522 -407.42038
-11.002317 -45.787579 -409.28482
-5.2403865 -79.629646 -406.41876
37.968185 -67.683838 -410.80463
-70.040573 5.6963935 -369.37509
-12.65369 -46.229687 -424.48813
-19.318426 -45.011543 -421.11469
-13.837552 38.121925 -403.71506
-52.789982 -86.546448 -414.55432
-28.92951 35.859695 -401.50241
-28.387699 37.676922 -401.26566
-67.843857 -28.227131 -400.75421
-69.390251 -31.158617 -400.78232
-67.908157 -31.517832 -400.95456
-67.278168 -29.679649 -400.95029
-66.384735 -31.834311 -401.13297
-65.810677 -30.370888 -401.10428
99.264824 -47.819786 -398.75955
99.308182 -44.882404 -398.66281
100.88995 -45.92168 -398.81946
97.872086 -47.251064 -398.37119
-9.9508085 -78.354927 -408.48715
-9.2373323 -77.094551 -408.45276
-13.699588 -47.431023 -407.21167
-87.428307 -65.399879 -401.76581
-86.581047 -64.539963 -402.23892
25.585756 36.306129 -378.1929
-2.9805593 -79.260094 -408.54904
40.165798 63.909073 -406.56992
40.730835 62.479469 -406.9263
41.30117 61.013275 -407.11557
42.831326 60.381794 -407.25967
42.449757 64.381683 -406.61877
43.072468 62.923462 -407.06863
44.573021 62.303925 -407.29071
44.725533 65.055061 -406.73529
45.303356 63.623611 -407.202
45.283413 63.638443 -407.37057
53.875923 -51.993179 -421.95392
-67.538277 -13.837113 -372.09964
54.029938 -52.703049 -423.87756
53.242931 6.3522544 -412.66949
50.136551 -38.271324 -413.17719
48.663017 -37.631901 -412.86734
50.124943 -38.261433 -413.27872
54.808414 -40.729366 -414.79529
53.871918 -41.486015 -414.59439
53.451916 -40.504074 -414.57635
-28.222811 -35.025463 -419.1185
-26.987679 -35.004341 -419.21756
-27.614698 -33.495571 -419.15366
-17.285082 36.485657 -416.17221
51.955612 -14.623619 -412.51498
-16.898884 -46.436214 -407.7038
28.070791 36.154022 -378.62988
15.311136 -24.586786 -409.34857
14.822005 -26.420691 -409.29453
13.406507 -25.957693 -409.11545
16.317709 -27.043879 -409.46466
16.827242 -25.265617 -409.51047
-25.137281 -9.9961052 -417.30081
-56.945675 -85.53183 -405.16406
-64.932243 -7.7289844 -367.59073
-63.507824 -5.1368022 -367.55301
45.481335 -2.0468922 -411.39883
98.725815 2.681335 -428.12756
-64.464973 0.441953 -367.4617
109.72206 -37.126774 -417.05151
-27.203856 -40.249214 -418.54721
42.750317 -65.200661 -412.45715
-22.848108 -43.196659 -411.42874
-64.439804 6.2002792 -371.22458
-57.098152 -86.829758 -407.34018
-28.263203 -12.094035 -405.10974
-49.434025 24.831608 -412.28952
-2.5330048 24.954548 -418.00836
-5.4080215 -21.005157 -418.64514
76.932358 56.233391 -423.40717
113.30075 -37.075645 -418.33841
32.90263 34.762302 -380.18802
-51.833881 21.920151 -410.04028
34.621033 22.734739 -378.58798
34.863777 25.386202 -378.07309
36.730621 28.729588 -381.01929
47.520786 -6.8377318 -414.1788
103.92863 -8.9302359 -420.13412
74.027351 64.220444 -422.58185
2.2620885 -37.175358 -412.30316
0.7369653 -12.822947 -415.48859
0.6509161 -39.612728 -413.75385
67.989708 -8.389308 -414.82324
91.624313 -39.695999 -416.11871
-7.9492235 34.413795 -409.56061
-6.3654799 31.380217 -416.63666
-109.1597 -2.9032578 -397.74362
19.95121 24.470266 -375.04782
-56.357265 -76.594322 -404.61166
-55.766422 -75.184288 -404.6601
-55.615028 -78.259224 -404.21606
-54.794304 -76.917923 -404.36807
20.060436 32.408401 -376.31061
-64.035652 -103.43254 -403.7124
-25.698975 -87.855522 -403.85895
-18.351374 -84.447144 -405.63474
-6.5439792 -7.6515131 -414.51599
-8.2312737 32.722752 -416.5535
62.814816 -55.860779 -424.35736
34.17841 27.036802 -377.20175
2.9802611 -29.820826 -421.83624
-71.074348 -55.350479 -403.63211
-72.804054 -0.33123982 -366.53903
-21.205866 -85.411667 -406.75439
-20.175398 -84.766891 -406.87201
30.429003 -70.065262 -409.3627
38.878952 -67.019661 -411.18134
-14.343158 -82.538338 -407.10834
-16.766634 -46.53558 -425.32623
23.605196 13.719631 -383.86185
-6.1441069 -5.3930163 -406.24619
-10.239029 -4.4991641 -405.72586
-82.214798 -30.0058 -399.69019
-81.313644 -28.946276 -399.59842
-82.795952 -28.234245 -399.43094
60.382538 -48.50436 -414.90887
60.814743 -49.514641 -415.00601
-82.04847 22.717781 -397.08905
-81.350044 21.312574 -397.25842
-79.405937 22.731886 -397.30118
-68.74662 -56.163757 -402.38608
-67.927277 -55.103485 -402.36353
88.6716 -32.111969 -416.29095
-78.801727 -65.713905 -402.21576
-79.30574 -64.762726 -402.32526
-31.178024 -89.35128 -406.41159
-66.23185 -35.607365 -401.24155
-64.702385 -36.260105 -401.42557
-65.321526 -37.745003 -401.43021
-63.160091 -36.559315 -401.57117
-65.44664 -34.295097 -401.26007
-63.898991 -34.928093 -401.46161
-66.234108 -35.609688 -401.26071
26.915014 -70.867493 -409.14026
23.717072 35.248219 -377.20752
-68.976944 -15.112887 -374.12305
-51.2257 -83.229309 -405.80591
99.123322 -56.320057 -401.5527
100.53691 -23.776087 -417.11472
18.633194 0.49144393 -406.84073
19.305277 -0.94514304 -406.80331
19.330397 -0.96374977 -406.5184
49.318256 -45.437469 -413.4624
50.692612 -45.829399 -413.54861
-16.845568 35.251251 -416.30493
-83.472641 -64.985817 -402.31348
106.56731 -35.831982 -416.71091
-31.965342 -34.474583 -405.62076
-12.137607 -45.900028 -409.00894
-33.341755 31.466043 -407.51013
-18.394514 36.436062 -404.88354
-66.392471 -13.118722 -371.44495
53.556408 -50.049206 -414.88669
7.2539072 28.970961 -403.38809
84.070679 -29.905876 -416.39496
45.395912 -51.009209 -413.16077
43.969379 -50.527058 -412.94092
-13.314741 -46.183605 -408.75146
41.933205 -63.59528 -412.69424
43.056625 -63.516071 -413.00558
42.574654 -62.267868 -412.90875
-62.191597 -101.8888 -404.60739
-19.6206 -45.715824 -407.3837
-4.0506315 -79.422165 -406.96951
103.42724 -36.471512 -422.01038
52.015015 -53.758823 -423.47125
-59.214687 -86.449478 -404.82922
-57.665047 -63.407265 -403.52246
-59.475048 -65.572304 -403.49811
-61.026337 -65.263275 -403.41867
-60.036407 -64.07444 -403.41898
46.661839 -62.206745 -422.8992
-61.666897 -17.469559 -400.04089
82.763084 43.507439 -424.77499
-20.610222 -44.176353 -420.12411
-60.90889 -103.96845 -403.81998
111.35149 -38.24947 -416.79654
30.356495 35.949558 -379.53329
32.03352 17.151918 -380.9726
49.479446 3.387907 -413.66629
47.201286 -55.804298 -415.43304
45.617828 -57.507488 -414.13437
12.762257 21.296501 -406.12595
-62.492054 2.8209851 -369.48907
33.662857 33.193352 -379.4014
102.33098 -37.386623 -419.83176
36.42485 26.753557 -379.83447
111.91523 -29.230547 -420.8685
109.30489 -21.745733 -421.41254
78.180359 57.084866 -426.25406
-0.30661055 -39.490475 -418.79501
4.686687 -35.313431 -409.73447
-5.360724 -43.862072 -421.22903
-5.8640318 -43.260361 -421.46814
69.240837 66.044731 -424.46912
63.160542 -52.778667 -415.92068
66.663864 4.1269565 -413.01675
45.21056 -61.090809 -412.33173
67.38739 -10.355939 -414.42929
92.51564 -38.589951 -416.17279
-47.848785 -95.960808 -412.47708
61.503624 7.4563332 -412.89124
63.135685 -56.630486 -424.69882
-111.42747 11.408916 -395.5968
-59.125412 -101.78625 -414.91901
-69.097328 -58.989407 -402.35907
-69.64016 -57.789333 -402.41949
-74.656242 -59.965881 -403.43207
-20.535479 -83.907402 -407.45834
-55.097069 -96.982033 -414.53641
-14.023561 -82.793449 -406.24084
-50.363266 -96.872139 -412.90137
1.3807154 -78.167046 -408.94229
-14.176676 -47.37624 -427.50861
-11.412919 -5.2272763 -406.88599
64.327255 6.6180773 -412.53976
-78.29187 -33.70377 -401.20233
-2.8585379 26.015541 -417.3223
74.408745 -12.13942 -413.80148
92.092857 -37.447441 -416.41571
-65.075371 -102.29114 -404.61893
81.050995 -59.610424 -415.03827
-71.609863 -14.540379 -373.07413
26.287254 -71.25869 -407.40491
-52.42815 -96.552361 -414.27036
-62.236897 -103.77199 -402.1449
-13.698281 37.236343 -404.68057
-84.434341 -31.4984 -400.21698
58.344429 -49.640312 -415.21451
72.460434 -32.125458 -415.39886
73.144402 -30.723911 -415.13998
-64.761612 -79.741333 -403.71716
-63.111225 -79.965126 -403.70959
-63.910069 -78.406799 -403.61877
-62.958324 -77.304565 -403.66626
-62.224171 -78.551392 -403.87796
8.1436996 -61.739704 -409.69669
6.6405797 -61.141869 -409.47314
25.850296 -68.712929 -411.50275
58.443501 -15.878732 -413.86066
58.829628 -16.849916 -413.46747
59.261608 -17.816795 -413.35138
56.621033 -14.641798 -414.84402
-68.627571 7.1295395 -371.16202
-62.572262 -103.42181 -402.8483
-19.72117 36.27573 -406.39731
-26.32015 33.405418 -415.31067
-24.890234 32.975925 -415.39828
-25.45093 34.452789 -415.08557
-22.591595 33.68977 -415.56302
-23.159243 35.173706 -415.24911
-16.182856 -5.3896942 -405.93155
-40.368149 30.671734 -401.00677
-56.287548 -83.47403 -404.66205
-56.41745 -87.806488 -414.5318
70.738266 69.124321 -421.86606
62.358002 56.79771 -421.27548
63.100029 55.339108 -421.45059
20.004591 9.2381115 -407.07788
19.364138 7.8788018 -406.91016
21.506718 8.5508432 -407.43707
17.900269 8.5440254 -406.4111
19.951071 9.2487745 -407.4147
17.830402 8.5608654 -407.28339
21.580713 8.6865129 -406.57007
21.540033 8.5261402 -407.12045
55.401138 -14.692564 -414.3616
-44.835258 -92.313034 -415.85178
-45.288399 -91.364494 -415.83749
-65.065773 7.0180845 -371.96939
-30.834103 32.723511 -405.32233
-64.23481 -13.407797 -373.22443
-26.479664 -10.058754 -404.80014
-47.377575 25.845898 -401.12646
-60.124256 -87.739952 -404.92581
46.306313 -61.493095 -422.10428
-4.0246596 -21.609417 -420.6666
-50.122021 6.9182353 -413.47742
49.028435 -13.947268 -412.19702
49.984768 -13.68824 -412.58218
-63.06216 4.0245261 -369.97791
31.272575 15.802238 -382.69232
98.82692 -55.599548 -399.11447
-50.794514 21.444014 -412.81573
-50.464184 20.51137 -413.12143
-3.8878901 25.173067 -417.75134
-3.397758 24.264179 -417.94708
48.173336 -8.8410711 -414.56436
-30.717726 -37.354332 -405.58884
35.689892 22.409489 -380.35162
35.998398 21.492319 -381.46213
-29.753674 -31.248152 -418.91599
-32.270069 -31.215805 -418.30032
98.506477 7.0518498 -430.59756
94.379486 17.561085 -430.69101
-55.553604 -29.670145 -401.51495
-56.994373 -29.313692 -401.19589
-56.969322 -29.312979 -401.19962
-55.516396 -29.696993 -401.27277
-56.234386 -100.09207 -413.30679
-4.8492188 -6.9681625 -410.43982
-76.939384 -8.5021687 -369.57922
63.615292 -53.656242 -416.21725
70.436211 -2.5016675 -413.25824
4.4051404 -37.712147 -409.03748
0.85073406 -41.459282 -409.04584
-43.923199 -94.428741 -410.97058
-44.282619 -93.78344 -411.59821
18.820538 35.040352 -379.18124
-42.506016 26.578943 -413.60193
61.680504 -52.051346 -416.09268
54.29142 34.941795 -409.5791
55.799759 34.30497 -409.72717
56.413918 35.883369 -409.7771
57.262672 33.66119 -409.89319
57.94611 35.253647 -410.02054
58.750942 36.60397 -410.20792
-69.010529 -48.986992 -403.01801
95.047943 -43.302578 -398.64777
96.465149 -40.715839 -398.77109
-1.7768239 -43.939659 -408.64642
67.711342 -60.32233 -414.78549
1.1234516 -79.213562 -406.74982
-53.126469 -97.406906 -413.11746
-15.460236 -47.587914 -428.27646
-16.619987 -45.818935 -422.92868
70.190132 66.843193 -422.21445
-8.9520092 -4.1831307 -405.44867
-51.005138 -69.885094 -404.19525
-49.475857 -70.182205 -404.31088
-51.006435 -69.887566 -404.21512
-110.36913 4.2239704 -396.45407
8.0682211 -37.150421 -408.80148
7.5649276 -35.935543 -408.71777
-51.359673 19.506561 -412.94876
-32.253159 -89.816696 -406.14157
-5.1925993 -81.142639 -404.11761
74.995712 -60.577011 -414.08194
13.954501 -74.422951 -406.79431
-50.883427 -85.198654 -412.0444
-68.888664 -11.648778 -369.09644
-14.009044 -6.9173708 -418.87085
25.079803 -15.658499 -408.94046
24.481987 -14.258555 -408.80933
69.685532 -22.155769 -414.39801
71.194733 -22.81139 -414.44696
71.870819 -21.326185 -414.38724
70.871971 -25.132235 -414.68909
69.282555 -24.252089 -414.49976
67.815262 -23.647331 -414.41901
72.728958 -23.502356 -414.70581
29.14971 -64.838692 -412.3316
30.727314 -62.666718 -412.51907
28.515846 -63.306038 -412.27335
-7.0730853 -48.215263 -407.71222
-7.7056646 -49.765804 -407.77554
71.533043 -57.696037 -415.8302
70.825897 -59.100277 -415.71497
-15.18942 -47.146465 -407.39346
-14.240514 -46.574963 -407.96414
-19.379078 36.783241 -412.6701
-39.170612 30.067677 -402.50128
48.626972 -49.850292 -413.52914
-49.806812 22.088007 -413.12314
13.972234 15.636798 -405.56689
-67.153221 0.95406485 -366.72696
28.584444 32.016205 -375.33313
-61.691422 -102.71069 -404.38239
29.322281 35.438541 -378.33347
-18.807581 -6.6209402 -416.46271
51.549736 -51.258644 -415.26874
9.2651224 30.237869 -403.61179
-8.5867558 -72.540802 -408.63156
-9.989398 -72.020805 -408.49023
-7.8446107 -71.197472 -408.65189
-10.337847 -74.4086 -408.42917
-11.877219 -73.766548 -408.32745
-47.165318 3.1162684 -413.6026
50.823036 -12.4187 -414.07642
-24.114744 -41.55928 -419.46793
50.632919 -53.057262 -420.73862
-56.931217 -86.129776 -406.00851
86.665108 -23.959181 -415.42676
88.119507 -24.402313 -415.48083
88.704384 -22.792006 -415.48709
90.312714 -23.684343 -415.5972
88.082199 -21.116604 -415.38654
100.1308 -1.8844234 -428.51022
-2.5505502 24.347479 -421.02426
-52.76292 13.84435 -400.97263
75.781601 58.569557 -427.79355
100.23856 -3.9192953 -416.52063
-59.046028 -89.33522 -407.87863
16.952644 -10.375756 -408.93591
-60.568428 2.6851292 -371.49216
4.1797543 -32.885788 -413.47888
17.467482 32.660145 -378.17621
58.554359 -51.325752 -419.74899
-2.0765731 -14.204678 -420.65735
-1.3270128 -13.218966 -420.57043
-2.5796125 -12.943182 -420.50128
-2.0746012 -14.202963 -420.69937
5.0579615 -14.821107 -408.12439
90.06881 -48.798012 -415.63846
-54.445591 -45.277424 -402.38821
-52.994419 -45.705814 -402.5502
-51.540596 -46.112724 -402.65765
-53.547661 -47.840321 -402.5643
-52.970032 -45.714211 -402.33258
-53.547924 -47.84037 -402.56836
-3.8194346 -41.639519 -421.41208
-45.019165 -95.222679 -411.3461
-35.955318 -92.241928 -403.41339
-73.343025 -9.6781664 -368.37091
0.29994395 -13.799985 -420.55905
-112.69714 14.220314 -395.26819
-112.02743 13.359087 -395.32278
-67.724113 -45.562801 -402.07886
-69.595779 -54.825752 -402.71259
-67.199684 -106.83321 -404.11212
-66.491524 -106.27515 -404.28085
22.736862 32.199627 -375.13705
68.027428 -63.144901 -413.30991
4.6968875 -78.025543 -405.51517
-52.527454 -97.905937 -412.06012
-13.814664 37.081928 -406.13242
59.007381 7.2665477 -415.60187
72.645256 51.172482 -422.35797
74.115242 50.530796 -422.63022
71.97348 52.685295 -422.14536
71.966797 49.546768 -422.35461
45.70834 15.942564 -409.93588
44.356064 13.096337 -409.96997
47.755161 13.883564 -410.22202
46.254395 14.527078 -410.10077
43.155563 16.072041 -409.60379
43.754753 14.582724 -409.82086
47.734367 13.900022 -410.45758
-77.004936 26.033514 -395.83533
-90.506996 -3.7480266 -397.75989
-90.623428 -2.462297 -397.41077
-90.496597 -3.7726831 -397.10617
-90.504509 -3.7493293 -397.61011
-90.51931 -3.7295005 -397.90164
-92.396713 -4.7773623 -397.68069
-91.527435 -6.6676345 -397.73767
-91.69545 -3.508054 -397.8378
24.467896 28.137835 -373.90698
25.871702 27.532747 -373.93527
-13.806755 -81.263428 -407.84634
2.9951661 -75.850807 -408.97668
3.4011519 -76.8526 -409.02499
72.891388 -61.078278 -412.91196
-61.702251 -104.65675 -401.95764
76.132027 -59.933846 -415.29904
-67.725067 -14.624515 -373.44601
-12.609419 -4.4195313 -405.46884
-11.935369 -8.7631721 -419.22867
-19.015095 39.025257 -402.52551
-18.701183 41.30312 -402.36578
-31.111034 -76.961601 -406.38922
-30.550333 -75.166199 -406.38879
-29.655672 -77.292793 -406.68008
-29.109537 -75.578568 -406.61124
89.965408 -35.266415 -415.93179
91.410591 -32.631516 -416.18463
92.016403 -34.113712 -416.1478
57.744957 -17.134621 -413.25778
57.742603 -17.143337 -413.28461
-86.951683 -66.575035 -401.70273
-85.963921 -65.516418 -401.93307
-85.648674 -66.429115 -401.81702
-84.949806 -64.78022 -402.3284
97.656036 -36.658512 -415.73813
53.908543 -51.339821 -417.81848
-51.372559 -84.055862 -407.2059
52.89838 -52.900768 -423.62573
-53.7747 -82.851624 -405.00882
-54.104748 -81.852768 -404.65509
84.849724 -28.739372 -416.06177
-1.7430512 -52.104176 -408.35782
0.76079601 -52.774704 -408.33438
0.15323664 -51.326397 -408.20508
91.269691 11.297853 -426.48172
89.76033 11.709796 -426.26147
92.005867 12.681561 -426.56711
90.558907 13.333076 -426.31497
-25.234581 -43.77383 -405.61124
30.13162 30.919207 -375.3226
-3.4405513 -78.456276 -408.89255
28.957573 36.71537 -379.72723
-28.553505 33.3899 -405.36105
-65.480217 -10.207108 -368.78027
-49.713139 25.887283 -400.03125
26.304054 -12.552946 -409.08212
26.860146 -14.008734 -409.23837
-4.2549658 -24.193535 -420.39377
112.34416 -34.577805 -418.41891
-61.237667 -101.68116 -405.16864
-60.737801 -102.65295 -405.22583
-21.324553 -45.00304 -407.17175
-42.474834 -23.451288 -402.83981
-40.961689 -24.090771 -403.08859
-40.214367 -22.778183 -403.11813
-40.775333 -21.296162 -402.92523
-38.04377 -21.862877 -403.28833
-29.295227 -12.360094 -404.38184
47.52227 1.5008197 -412.36029
46.974808 -0.10812735 -412.31653
88.198013 25.480364 -413.91446
70.764961 71.997749 -422.02798
-61.380333 1.4288386 -368.83893
-50.926247 23.420105 -409.70306
-50.881134 23.386957 -409.95773
96.076904 13.231221 -429.96368
92.119576 -41.500561 -407.64661
66.93705 -9.3763952 -415.39902
71.407066 65.36068 -430.32266
-73.988266 -7.9033003 -367.72339
63.870056 -54.492352 -416.46719
25.516701 -9.5012617 -407.37131
25.615759 -9.5173559 -407.05115
68.14769 -9.2698221 -414.39566
3.2700138 -38.296753 -409.38959
-7.6653762 -80.260796 -407.25049
59.762695 -54.51413 -424.84604
1.6772071 -9.2554522 -406.96292
-75.37812 -26.536518 -399.93283
-75.202209 -23.488949 -399.75696
-74.50164 -25.160139 -399.88824
-73.809044 -26.830011 -400.06412
-72.972145 -25.480232 -400.04749
-73.650986 -23.796951 -399.91833
-72.207893 -24.188225 -400.05316
-77.012909 -25.344622 -399.79572
90.349365 -39.391659 -416.40817
96.261787 -52.271175 -398.92279
-4.7915754 -42.791965 -421.25946
-73.395248 4.6748691 -369.27411
31.243433 -69.434692 -410.79251
-49.191856 -84.140633 -409.51352
-18.218208 -46.076981 -424.07431
-81.318459 -33.229378 -401.3558
22.415262 21.037907 -374.33591
30.673214 -44.235043 -411.58694
4.6678329 -23.807846 -420.98514
-3.3017473 -39.633442 -421.7883
-70.161545 -0.4595705 -366.12326
84.175018 -58.343636 -415.7374
60.470844 -14.808316 -414.59186
60.865551 -15.754941 -413.99292
20.782185 -72.697906 -406.83255
-32.900013 -90.607056 -405.20258
-70.702606 6.5298009 -370.32584
-113.03599 -0.64452767 -405.5134
-14.944948 37.963543 -403.68982
-12.688277 38.62574 -403.54559
67.032928 -37.276253 -415.68164
68.083221 -36.723106 -415.6795
68.520584 -37.891171 -415.49759
66.589462 -36.129547 -415.44717
67.668488 -35.735954 -415.50531
-3.4178488 -14.019925 -420.59924
-3.8539104 -16.156145 -420.72232
-1.221648 -71.998848 -409.40427
-0.60844481 -73.413101 -409.46332
-0.0053992439 -74.915367 -409.38992
-15.730619 35.56831 -416.53848
45.193691 -59.46933 -412.97543
-12.329877 -47.813347 -407.45328
-62.900063 -102.98325 -403.59631
-37.337589 30.788828 -404.96179
40.18853 -25.80335 -411.70688
39.545815 -24.220928 -411.50638
37.707153 -25.715635 -411.31894
29.418335 14.535039 -382.03378
-19.593153 37.273819 -402.91248
-19.925943 38.147934 -402.48538
-21.811459 -5.6148138 -404.25693
69.158287 -33.286594 -415.08102
89.015396 13.498281 -426.12018
91.046669 14.974812 -426.4653
89.495857 15.393432 -426.16312
75.425957 53.782013 -422.80823
98.120811 -54.463268 -398.34357
-20.832151 -45.878048 -406.78665
-4.7402163 -78.496223 -408.41855
-21.245499 -7.6322961 -412.34995
-25.502745 -9.3797617 -404.92276
50.049828 -54.891678 -422.92563
-48.7183 26.459763 -411.89078
-62.123798 -88.870689 -403.87961
-31.815784 -37.388073 -405.01178
-24.099617 -44.134727 -406.39896
-24.585354 -43.227886 -406.80554
-50.770817 21.620581 -401.25479
9.0229568 30.251293 -405.47369
9.6319904 28.80727 -405.74438
-2.985388 23.096886 -418.30484
81.555885 45.172123 -424.25806
21.611265 11.394564 -407.16263
21.605833 11.396174 -407.21558
21.649479 11.394034 -406.81323
-66.48748 -11.015641 -369.04019
60.533588 6.9199181 -415.37683
2.7942564 -12.516618 -408.3848
-5.7182941 29.67778 -417.23492
70.387283 -5.5617146 -413.35062
94.280792 -41.425323 -399.1763
90.629692 -43.767052 -412.11374
-46.212303 -94.383453 -414.15811
-46.435589 -88.73143 -415.32007
-46.732491 -88.004097 -415.06128
-59.94735 -20.870728 -398.56595
67.128494 -56.079819 -415.68091
7.340085 -32.455154 -408.84995
64.926239 -13.404541 -414.3688
-21.52183 -84.739311 -407.34241
5.6334248 -76.388641 -409.38022
-23.387941 -87.150841 -403.99994
-23.762815 -87.105583 -405.2218
23.069014 36.533169 -378.76993
-12.557525 36.976608 -406.31754
59.912449 8.2314539 -412.63593
68.59816 67.626839 -421.81149
6.3438611 30.306679 -404.31879
-111.24028 6.1286197 -396.54401
98.605042 -43.014206 -398.035
97.913216 -41.566227 -397.71024
-16.007288 -63.503223 -406.10736
83.167885 -58.87022 -415.53366
95.329597 -35.92749 -416.52481
28.128111 -70.520882 -409.33173
35.537045 -67.976097 -410.66507
60.274998 -14.283862 -415.52463
58.503937 8.799139 -412.0845
75.179596 -29.566734 -415.16422
74.50135 -27.947056 -415.10809
49.139854 -26.598738 -412.52521
50.590202 -27.090397 -412.65897
48.604355 -28.293484 -412.31287
51.223557 -28.602133 -412.51523
51.829758 -30.111887 -412.72989
49.785511 -31.254709 -412.57635
49.175381 -29.756798 -412.51068
6.0414443 -41.308994 -408.70462
6.6226707 -42.795013 -408.92444
8.8413458 -42.162418 -409.11758
97.525124 -29.234287 -416.91974
99.047279 -29.559763 -416.82779
60.476997 -20.851542 -413.46536
59.815926 -19.276098 -413.34283
-11.707737 -46.555927 -408.18674
72.768127 -60.344143 -415.30206
-32.920044 31.265266 -405.12469
-21.743935 35.485416 -404.89832
-65.377518 -14.18099 -373.70148
-88.349876 -33.22942 -400.86206
-36.366161 33.43568 -400.72397
-36.168682 36.013405 -400.47897
-44.486481 -69.857399 -404.43414
86.271111 24.793011 -413.47958
84.807068 25.188129 -413.12515
66.661774 72.66346 -420.83838
52.353779 -15.994298 -412.55862
51.539246 -17.095793 -412.36655
14.224938 -18.814747 -408.79379
16.15712 -17.493195 -409.01254
13.658863 -17.370535 -408.56573
13.093644 -15.943276 -408.44702
14.979167 -14.605418 -408.65308
15.558008 -16.006424 -408.77802
13.563021 -14.110197 -408.46478
13.092848 -15.940872 -408.47626
13.560433 -14.108234 -408.49686
30.14509 -61.224346 -412.37024
28.66081 -60.61459 -412.21619
28.052288 -59.128361 -412.13101
-91.9366 -34.528603 -400.59018
86.140076 0.96476096 -426.43304
84.663895 1.5889024 -426.24954
83.195969 2.0076377 -426.06848
31.085016 23.150784 -375.34402
-33.540997 -24.700581 -417.14294
-32.784725 -34.986412 -404.93259
-33.886536 -35.333801 -404.53204
-101.9483 1.1394123 -396.7153
-100.75283 2.0613601 -396.77496
-100.0808 0.38742667 -396.94904
-98.336632 -0.14398928 -397.15555
-99.941566 3.3982048 -396.88391
-99.270851 1.9941661 -397.02881
-97.746559 1.3849446 -397.13669
51.269432 -13.618366 -413.33243
48.20512 3.6351144 -411.57736
100.70384 -42.34325 -398.84952
103.00474 -44.947559 -399.01163
101.47631 -44.393822 -398.82285
102.28419 -43.066582 -398.84564
91.064964 22.08115 -426.48059
-4.3850231 -20.809931 -420.54404
-12.630373 31.205383 -416.67593
-14.495306 29.526632 -416.48679
-13.059666 29.143476 -416.72058
-13.060491 29.143167 -416.72577
-12.634713 31.208 -416.70895
101.93829 -37.208008 -418.96826
-8.082468 34.966446 -407.74268
94.068192 -55.211609 -415.57928
68.813881 -1.4236517 -414.38226
70.97197 -3.7805545 -413.57126
-45.838104 -94.464493 -413.18518
-47.344917 -94.952019 -414.24637
86.831825 -30.515772 -416.77338
87.744385 -29.665976 -416.74509
-6.3832316 35.195114 -404.90976
-3.3533239 27.302227 -416.92572
66.088867 -56.725952 -415.79102
2.9401777 -40.077908 -408.7901
64.54081 -12.464095 -415.07736
61.384136 -13.96602 -415.47534
-13.621688 -82.950363 -404.88223
20.11916 -72.397156 -409.82266
20.954742 14.58486 -383.47498
3.5500114 -18.724154 -421.56906
-103.51841 -8.4965878 -397.10092
-102.01299 -8.8370457 -397.28351
3.4588521 -40.990978 -408.47766
3.7988393 -42.000328 -408.4404
65.902969 -59.503098 -416.01028
-15.816336 -82.500481 -407.66483
-50.410069 -95.37928 -415.0083
74.007996 -60.757587 -413.77164
73.811119 -60.640163 -414.63818
76.389435 -60.309601 -413.96524
-52.43544 -83.839592 -406.26886
-53.597206 -83.948364 -405.94513
25.768604 21.844442 -374.92322
24.508968 22.191517 -374.54602
-59.495735 11.913239 -399.48044
-58.856274 10.506839 -399.65729
-57.044453 12.423287 -399.71399
-56.516186 10.953482 -399.901
-29.921259 -17.978157 -418.06378
-30.284647 -20.222996 -418.16827
-29.247545 -19.695847 -418.30588
-30.783379 -18.987026 -418.009
107.6873 -35.311806 -417.42761
-16.394842 -47.344677 -407.15244
-86.874153 -63.082436 -405.15311
-26.512806 34.123089 -406.63782
-15.699938 -46.282188 -408.04181
-36.90826 30.723043 -402.71194
-25.175648 35.735054 -402.27393
-67.021164 -8.4863329 -367.23279
105.51649 -23.285458 -418.01089
-12.939304 -64.769737 -407.43045
-11.487897 -65.159409 -407.53528
-12.794949 -64.757484 -405.95062
-21.343422 -42.191067 -419.9339
-20.190729 -41.848637 -420.09457
97.336212 -54.840786 -398.40045
27.868032 33.598442 -376.05615
51.206448 5.2863841 -411.88165
-24.613916 -8.2753468 -404.55328
-64.180382 -6.5685768 -367.64819
-35.929146 -20.719286 -403.36295
-34.670338 -20.771999 -403.67691
46.447838 -13.65395 -411.71622
-50.098648 22.987028 -412.784
28.36459 -70.582428 -408.17636
53.533157 27.503077 -410.02386
49.742706 24.438408 -409.83475
51.705116 25.836931 -409.92664
51.541454 29.366928 -409.63577
52.075916 27.924797 -409.80777
48.236485 25.0821 -409.66159
47.661888 26.544056 -409.52286
49.588284 27.963247 -409.5899
50.171597 26.493362 -409.71362
-40.024967 -29.580458 -403.04306
-38.578346 -29.933121 -403.28717
-37.983864 -31.393753 -403.39279
94.054619 13.871699 -427.17703
94.50808 17.078537 -429.29764
65.197937 -8.0526733 -417.85422
-4.7841835 -6.7660728 -408.71646
-4.327004 29.481043 -416.53482
19.151836 25.849409 -375.17004
-1.4480546 -7.7452669 -406.8548
-0.17160463 -7.5724249 -406.51709
3.6074321 -17.281652 -420.24323
-111.92953 12.315412 -395.44193
-110.98407 12.845389 -395.34125
24.48432 -25.9415 -410.46622
89.57061 -43.726978 -416.23273
96.104713 -39.822876 -398.96631
63.796078 -13.723454 -414.49881
-17.564438 -83.871643 -406.49048
-11.546318 -82.051552 -405.4668
95.610321 -36.931847 -415.77933
-7.5936871 -6.1219006 -409.61594
-13.865823 -46.022434 -423.22366
-77.454269 -31.518656 -400.06952
-78.680283 -31.866989 -400.13693
-79.179062 -30.367712 -399.79135
-3.480098 33.801277 -404.90018
3.5009403 -24.964825 -421.80652
68.646278 -16.427729 -414.01822
68.022552 -14.897415 -413.9747
22.781248 -9.8304443 -408.0137
82.744011 -57.716858 -416.30341
37.068466 -66.01757 -412.88864
30.030609 -69.649315 -411.25494
-34.34 -90.715752 -405.58051
-15.512556 -43.87764 -420.74994
58.908665 -47.863239 -414.7262
58.04491 -48.841362 -414.78287
52.366474 8.5944071 -411.31509
-35.117233 -0.86228228 -402.55695
-30.335636 -3.1800661 -403.02057
-31.863091 -2.5775497 -402.77524
-33.114979 0.59212834 -402.5961
-32.504063 -0.8442083 -402.65823
-30.862772 1.2868503 -402.72943
-30.309973 -0.20431794 -402.86099
-29.686171 -1.6063952 -403.01767
55.263557 -41.850361 -414.63239
55.81926 -43.274643 -414.33441
-7.4845161 -47.273697 -407.83667
58.050484 -14.951419 -414.59775
-87.933304 -64.532539 -402.03519
-87.094208 -63.796349 -402.75409
-35.396767 31.213673 -407.43497
-64.784187 24.887438 -398.28595
-63.061878 27.043934 -398.33514
-67.691727 26.130709 -397.86859
-67.496559 28.351423 -397.75342
-66.04155 27.996269 -397.9433
-65.551506 30.037365 -397.85266
-65.314163 26.330143 -398.08603
-64.581917 27.644863 -398.11978
-65.327217 26.333632 -398.19812
-66.095795 28.014193 -398.40512
-17.600016 -6.7350574 -417.12326
-21.538237 -6.616004 -404.96365
-39.480549 31.726414 -400.71902
21.22826 -9.4195642 -407.75772
21.285273 -9.3867416 -407.45111
5.7546983 -6.9210138 -407.21399
7.7948856 -8.9931002 -407.68573
7.1738505 -7.4708834 -407.52219
7.6214008 -5.5081649 -407.45895
-7.4524837 18.496777 -417.51019
-4.3043199 -76.678749 -409.04767
-3.8890455 -77.660065 -409.04022
-22.920013 -41.530037 -419.849
107.95193 -36.683281 -415.63513
30.884409 20.427561 -376.78619
-44.519997 28.177814 -401.31357
-50.074387 23.093824 -400.86838
-64.850502 -4.5434246 -366.98413
-4.8312569 -19.796469 -420.4975
-28.235546 -40.167336 -406.20148
-26.413366 -41.842224 -406.60471
48.487778 2.6907685 -412.78415
45.87336 -55.973614 -414.10107
24.937185 -36.026478 -410.21835
25.532801 -37.540577 -410.40662
25.505684 -37.531582 -410.63031
24.941254 -36.011913 -409.96027
24.944267 -36.014862 -409.86386
25.611494 -37.578396 -409.77756
87.58725 27.717295 -413.79279
86.233009 28.126247 -413.26868
86.945297 26.387474 -413.44153
85.420135 26.780531 -413.16125
46.910393 -8.814455 -412.4046
109.93175 -23.814526 -421.7948
-113.25473 10.664211 -396.73093
-112.76799 9.4620705 -396.76138
91.744858 -55.358536 -416.81744
64.739975 5.7063713 -413.23251
4.4426889 -13.039626 -407.63321
-106.7723 -4.3815289 -396.85312
-105.53831 -4.0092139 -396.8204
45.723774 -64.568634 -413.10718
44.890301 -64.955063 -413.30063
45.873634 -64.389542 -414.00482
44.435619 -63.836781 -413.30096
65.6866 -57.922161 -415.89734
0.7405439 -37.05294 -421.93198
-0.094075277 -38.086876 -421.82224
-2.1378715 -43.34277 -409.4281
-30.179892 -90.022354 -404.10971
-51.041985 -97.741447 -411.64215
-11.661975 -5.475059 -409.31345
58.944675 7.2488861 -414.69547
59.803673 -50.487812 -415.74622
17.747641 -6.5167561 -406.98038
-57.958572 -59.422302 -403.39636
-55.74749 -58.19585 -403.4758
-57.212936 -57.800247 -403.34525
-59.422432 -59.008789 -403.25616
-58.806194 -57.571854 -403.20337
-67.188957 -60.037472 -402.53198
-66.193787 -62.431755 -402.78754
-64.662727 -62.767693 -402.91605
-65.662308 -60.376144 -402.67996
-64.197578 -60.783237 -402.90002
35.975742 -49.064392 -412.09628
36.612389 -50.478508 -411.09158
-7.4295936 -45.219254 -409.52756
-9.6204834 -45.855797 -408.98569
-12.087397 -81.663284 -407.25974
13.419213 -74.10952 -409.52713
-47.247772 -82.298393 -405.51581
-10.649199 -3.2200782 -405.07321
-67.826469 -68.651169 -403.01154
-65.063538 -68.981285 -403.22473
-68.805115 -69.876663 -402.49042
-67.22113 -70.097397 -403.04224
-66.500778 -71.750351 -403.19827
-65.653969 -70.400909 -403.18893
-5.7205071 -76.374527 -408.76364
-4.8909955 -75.24292 -408.87256
-17.515442 -81.647919 -407.62595
28.464262 -69.02272 -411.87936
71.285179 -60.390842 -415.13965
-86.163383 -63.457397 -403.66763
-38.204498 30.406572 -403.42545
-89.422691 -33.949661 -401.37936
-47.808067 27.217428 -400.23978
-48.292973 28.410416 -399.96402
-37.722572 33.682308 -400.79089
-38.280003 35.126053 -400.64203
-60.319809 -17.853065 -400.50217
-61.121628 -15.959702 -400.30463
-59.673618 -16.326542 -400.47742
50.487862 53.706753 -408.85254
-23.212172 -45.96014 -406.10889
-23.81881 -47.504158 -406.01495
55.911316 -15.818825 -413.50409
-65.866585 3.0477223 -368.04181
-94.16848 -35.112068 -399.83652
51.137745 -54.383968 -423.05328
-51.977512 25.119553 -399.73984
-51.154663 26.168505 -399.72961
-50.665688 24.967892 -399.92377
-52.232254 18.468483 -412.92664
-51.898361 17.525558 -413.19128
60.14349 56.098675 -420.8793
58.677372 56.4907 -420.66959
58.554272 53.617443 -420.86191
57.233326 56.877983 -420.41446
56.51429 55.519344 -420.48993
57.977863 55.126957 -420.70212
-30.364115 -38.328224 -405.45459
99.354218 -36.344063 -416.53262
-32.949978 -18.954712 -404.25937
-52.144855 11.841904 -413.14584
83.646362 37.637062 -412.86938
-29.436401 -40.216717 -405.50696
87.782333 31.393471 -416.004
69.368637 -6.169661 -414.18295
63.117519 19.141268 -411.18353
64.634102 18.494267 -411.28513
64.954109 20.811525 -411.10532
66.542763 19.941135 -411.27283
67.192947 18.410685 -411.40085
68.679176 17.794348 -411.54025
-42.414608 -84.646927 -405.40201
-47.187279 -8.623827 -401.61404
-44.637672 -8.6790466 -401.78015
-44.037151 -10.116781 -401.90689
-43.978516 -13.335201 -402.07196
-43.433353 -11.552177 -402.00409
-48.096584 -12.692744 -401.71579
-45.435802 -12.981751 -401.93097
-46.033768 -11.53831 -401.85602
-48.715466 -11.285915 -401.53369
-46.638256 -10.106189 -401.74103
89.754822 -47.837803 -415.95914
6.5750399 -36.796932 -408.73969
7.0330563 -37.757618 -408.74066
-0.93953538 -39.16996 -421.60645
-38.255539 -92.438118 -405.34653
68.017952 -61.139206 -414.09976
-49.849003 -97.212112 -411.78036
68.566574 24.377989 -410.58527
65.148239 26.651659 -410.43967
65.837532 24.918856 -410.52759
66.432053 23.427702 -410.59702
65.834846 24.919703 -410.5538
67.020042 21.950769 -410.81061
65.83226 24.923613 -410.62204
66.426811 23.434326 -410.69138
65.829582 24.924463 -410.64825
-11.271283 -46.029976 -423.75827
-4.6273689 -5.628283 -405.76697
-9.2775717 32.195538 -416.90085
-64.780518 -45.69772 -401.98608
-64.161827 -47.1082 -402.0773
-66.276863 -45.660519 -401.86395
43.053677 -60.468086 -412.86987
-22.871971 -84.330864 -407.41061
-23.491922 -82.92128 -407.29712
-8.5395641 -79.004875 -408.39105
35.002541 -67.429779 -411.97934
36.603958 -67.474525 -411.54889
-62.557747 -105.16479 -401.36938
-13.928189 -4.5028062 -405.27383
21.743734 -40.417313 -410.37735
24.12351 -40.173027 -410.36691
23.885204 -42.693768 -410.79984
22.517782 -42.150257 -410.62408
23.512207 -38.686306 -410.40195
23.570768 -38.720768 -409.83286
93.540909 -28.457592 -416.96228
93.095978 -27.37916 -416.86795
-91.723633 -26.954638 -398.93701
-88.559921 -27.574293 -399.1282
-90.202866 -27.30512 -399.03729
-89.740433 -24.701313 -398.91049
-89.07457 -26.092562 -399.0022
11.951286 -43.685104 -409.45932
11.353317 -42.223061 -409.36749
13.472466 -44.40625 -409.60278
11.646203 -45.952496 -409.4288
10.138553 -45.280605 -409.32397
9.4279585 -43.743759 -409.24789
26.762859 30.900602 -374.58234
5.5450797 -40.098331 -408.60406
5.1086664 -39.138168 -408.61722
-11.168982 -47.602478 -407.6749
91.4608 -2.3561673 -427.01489
92.218666 -4.3632903 -427.30423
90.826553 -4.1868973 -427.11813
89.98037 -2.1337445 -426.87436
89.264908 -3.5283861 -426.90567
53.801563 -51.605267 -420.30719
-19.468575 36.178764 -404.70444
-86.8806 -33.267517 -401.3978
-86.892014 -32.463398 -400.4267
-45.477688 27.569321 -401.00317
-45.929714 28.885946 -400.21408
-22.210915 -11.298345 -418.616
-23.351015 -11.663622 -418.45187
-22.843899 -12.902174 -418.53101
-21.383806 -13.273518 -418.70416
34.770935 -30.719109 -411.20255
32.762844 -31.80813 -410.83997
106.00832 -37.87978 -399.42471
106.62134 -39.012978 -399.26846
-74.88221 -13.311168 -372.9834
-22.667025 -44.476406 -406.86893
-55.987793 -84.358269 -405.16888
-48.566212 25.932775 -400.40518
-51.772362 21.214466 -400.37741
-52.635906 20.352322 -400.11951
-52.980762 21.291924 -399.86224
44.121685 -1.6535927 -410.85477
-32.309132 -36.19833 -405.04309
-28.51338 -42.372372 -405.51736
-28.898825 -41.418949 -405.54379
-29.827618 -42.188461 -405.23553
49.347672 -11.978826 -412.90677
-31.574551 -16.296345 -404.56329
45.917519 -58.147537 -414.7417
71.574821 70.245209 -421.95657
70.185089 70.629372 -421.32779
111.16939 -31.28297 -418.02356
114.69048 -35.77198 -421.54346
114.29696 -34.225227 -421.19131
-73.963989 -3.6381767 -366.48404
69.851242 -0.76720941 -413.59949
-73.645935 -5.0438819 -366.43842
89.091743 -42.577816 -416.49606
94.649651 -52.137043 -399.27783
95.274139 -52.834198 -398.92947
-28.044392 -87.661247 -406.6611
98.830437 -37.416119 -400.12009
42.042152 -65.789673 -409.7048
-34.910233 -91.644241 -404.13412
-15.244943 -45.865139 -423.11249
-80.09594 -33.628162 -401.64005
-76.740776 -29.962488 -399.98273
-76.045776 -28.059345 -400.00906
-74.598633 -28.458841 -400.15292
-101.62392 -6.0128007 -397.14749
-101.14499 -7.4964428 -397.20969
-100.02195 -6.3170691 -397.29037
-99.460724 -7.7614183 -397.41275
66.893501 -18.300117 -414.09521
66.319351 -16.84129 -413.92627
1.4529023 -42.425606 -408.44373
31.754295 -68.108437 -412.18454
-51.492146 -96.016098 -414.77774
55.238499 -52.645947 -423.90891
57.310253 8.6649475 -412.08777
-10.892728 -8.1500416 -419.34006
-65.668854 -74.018089 -403.30124
-64.982109 -72.122017 -403.27707
-64.124306 -73.991402 -403.34494
-63.51165 -72.548454 -403.38293
-62.965916 -70.46209 -403.3421
-61.4324 -70.79261 -403.51685
-62.612213 -74.747208 -403.61481
-61.964222 -72.8694 -403.57288
13.281208 -71.353371 -410.2233
69.279694 -58.413887 -415.52615
13.97446 -72.998512 -410.15927
-68.546051 5.339808 -369.11017
-39.535 30.020578 -404.61133
10.12879 36.693295 -405.46747
-34.718662 31.281223 -403.40009
-30.506186 33.386505 -402.11795
-94.415695 -34.207195 -399.36276
-94.858139 -33.101433 -398.99542
37.680359 -44.135838 -412.25684
-41.76614 -70.82653 -405.56448
-40.685596 -70.224655 -405.65808
-34.880203 -32.864975 -404.27917
111.49809 -35.610718 -418.09177
-27.405163 -42.068008 -405.93558
-67.222916 3.2930162 -367.80814
-24.060026 -9.7399406 -417.91879
-27.70845 -9.8026838 -403.96826
21.022533 -68.985794 -411.06213
22.962662 -67.599274 -411.07935
21.431078 -66.977379 -411.1427
45.009655 -1.0190383 -411.07562
44.370186 -57.255299 -413.2518
-52.123146 8.7916698 -412.97119
-51.648266 7.8308773 -412.74496
31.004213 29.787434 -375.25443
46.326675 -4.0871954 -412.47974
46.566189 -7.8292327 -412.26813
48.478794 -9.8068161 -413.84778
-60.416088 0.40476552 -370.02713
20.45327 25.936373 -374.64471
-109.44929 2.0582485 -396.41309
88.932098 -45.365501 -416.35522
-70.185806 -56.88208 -402.66733
55.854877 -49.705994 -415.10675
-44.081116 1.5508817 -414.5892
97.843742 -38.018173 -399.56143
21.229321 -73.341461 -405.39078
-72.085403 6.5493283 -370.61609
-70.384804 -15.492275 -375.01199
103.78069 -35.524002 -417.32101
61.216499 8.2604733 -412.38971
0.3141771 36.908058 -404.57861
4.1578836 -39.949497 -408.51157
4.595593 -40.953835 -408.45135
85.127556 -57.723053 -416.0813
-79.985214 -65.816284 -402.16431
-80.514816 -64.731438 -402.41196
14.378397 -73.752678 -409.60107
-15.065013 -45.059597 -421.38721
65.364555 7.1705332 -412.30765
66.406197 7.8105879 -412.31152
-53.416931 -88.165634 -414.95114
-53.070618 -89.275696 -414.96228
-6.4248867 -53.023907 -407.80295
-4.472425 -51.578369 -407.93893
-3.8489816 -53.048389 -407.75317
-7.096293 -51.197559 -407.78412
-5.0649266 -50.115784 -407.84894
73.95266 41.073917 -422.76935
43.856262 -59.1861 -412.92505
-68.495262 1.2598232 -366.59528
-16.497614 -5.8914657 -408.74298
-38.138824 31.37776 -401.23663
-43.510563 32.386749 -400.15192
-42.923206 30.934502 -400.3653
-41.970242 31.765059 -400.31454
71.399338 67.374229 -422.18878
78.747864 -4.1326208 -413.85419
78.74601 -4.1313133 -413.87115
-69.818542 18.413116 -397.86108
108.52974 -27.634514 -417.85062
-18.818851 -47.422733 -406.75076
-67.036789 5.1014977 -369.02292
-93.027809 -34.872021 -400.30402
-97.171997 -38.779125 -400.17722
-32.799915 -16.064589 -403.78061
30.998777 26.051981 -374.70151
-5.2616134 -18.806185 -420.51212
48.40873 -12.488426 -412.215
47.902035 -11.526896 -412.2511
96.717186 -4.3929477 -416.14221
97.430107 -6.3699641 -416.1196
98.217461 -5.0377769 -416.18045
45.550766 -5.5736899 -411.78983
72.25351 68.514725 -422.56445
93.143227 16.164724 -427.19608
102.69543 -5.911509 -419.67657
-44.037556 -90.936234 -415.94394
8.3877563 -26.161894 -408.72192
9.0056238 -27.270668 -408.63596
-58.06303 -101.69732 -414.72092
21.451485 32.279186 -375.62991
-38.933563 -87.121117 -405.67007
-40.0499 -86.844673 -405.61588
-39.357586 -85.767357 -405.57434
-40.049164 -86.844872 -405.59766
-39.764851 -88.00769 -405.849
-32.401924 -90.769348 -403.61563
31.39913 -69.386139 -409.6546
58.45084 -50.658577 -416.91989
58.158463 -53.706047 -424.66794
-16.171242 -66.239342 -407.48187
-26.039732 -7.4979019 -403.69327
-53.386532 -95.100479 -415.14047
30.548697 -68.142334 -412.17841
-81.902725 -63.158173 -403.90131
-49.784874 -83.152443 -405.87393
-48.465904 -83.022636 -405.91306
82.173706 -28.323832 -414.16504
82.722397 -29.72023 -414.79105
71.040314 -28.540474 -414.81314
71.524406 -26.682125 -414.80188
72.950638 -27.249338 -414.92133
72.44767 -29.07654 -414.91043
3.463655 38.079418 -403.85342
53.865349 -44.425182 -413.95761
52.526112 -44.22472 -413.86652
53.238293 -42.956219 -414.16232
32.066547 -65.957497 -412.58133
97.687874 -35.732601 -416.42358
-23.998884 34.779587 -404.89584
-31.612394 33.202007 -401.74307
-29.837582 34.958794 -401.46448
-31.122257 35.188488 -401.26895
-51.489613 23.932457 -399.90222
8.2100363 48.113708 -403.64709
8.1472502 48.125996 -404.16342
-43.795341 -91.782631 -416.17258
-64.54631 -9.3331661 -368.58295
46.662754 1.2771939 -411.54163
-60.383923 -86.8647 -404.55319
108.92688 -31.943314 -417.65491
82.442726 40.903446 -412.97263
-26.030699 -40.209957 -419.33621
-10.743728 -39.604824 -420.93451
-11.288723 -41.470352 -420.99796
106.76461 -19.846939 -417.85733
104.32902 -14.352346 -417.21848
112.69408 -31.015619 -421.2131
-108.76155 0.65879756 -396.47327
-108.24365 -0.24536116 -396.54288
-106.05386 -5.4945998 -396.95505
6.5187516 -33.539829 -408.94711
-56.62661 -98.18335 -414.78799
66.779579 -61.155178 -414.73602
-47.802692 -94.626984 -414.90567
35.004009 -68.968132 -408.40155
-30.717318 -89.902786 -405.79065
-7.7757611 31.847843 -416.85718
-50.544827 -67.846405 -404.30603
-53.406864 -70.584335 -404.202
-52.778069 -68.703896 -404.25531
-53.412346 -67.30587 -404.15906
6.7988429 -73.64518 -408.7944
23.714174 29.9727 -374.23444
12.011065 -74.338699 -409.94833
-83.35849 -63.302807 -403.97079
-84.341019 -32.912056 -401.5676
5.8426661 26.182062 -405.36578
90.066658 -26.179192 -415.91
37.114895 49.766106 -407.31821
37.685059 48.292717 -407.50104
39.187244 47.65955 -407.68649
34.245441 44.467499 -407.4826
34.749737 46.28426 -407.42389
35.46574 47.607063 -407.39294
36.244007 45.651779 -407.64386
36.846031 44.181099 -407.81537
36.964703 46.973991 -407.61844
38.449768 46.339535 -407.79846
-83.916092 -66.730537 -401.95294
-82.752754 -66.644142 -401.9884
25.433538 31.444414 -374.63565
-21.650637 36.159687 -402.99594
-56.781746 -99.013405 -414.49637
38.998821 -44.46513 -412.94937
39.562313 -45.889629 -413.08685
38.177197 -45.506027 -412.90384
-15.809445 -2.5984824 -404.20053
-14.880183 -1.7475455 -404.13748
-15.819467 -2.5863984 -404.28314
-3.5295219 18.275291 -418.21365
44.411835 -58.040184 -413.26819
7.916213 15.154077 -406.42978
7.3204441 16.621281 -406.36032
46.985344 -51.950157 -413.63065
-61.827702 -99.938461 -405.12521
-29.883541 -39.268028 -405.46182
-48.75338 3.9824638 -412.9754
45.082985 -56.40583 -413.66791
80.489395 47.679001 -424.21503
33.540417 28.679993 -376.4473
-59.222988 -0.7033233 -371.57925
-12.459923 37.039516 -404.94751
-112.13778 8.0335932 -396.80243
94.24115 -53.208614 -399.19659
1.0909092 -34.638329 -421.78271
-0.34095353 -34.243279 -421.62549
-2.7773783 -40.982746 -421.31839
22.012999 33.742653 -376.25378
21.93652 -72.874794 -407.37671
23.680901 -71.873344 -409.142
-48.42704 -87.114647 -414.93622
-41.737473 -83.177605 -405.41077
-40.265881 -83.578995 -405.57251
65.094025 -61.25967 -424.51382
63.376484 -60.251316 -425.2045
64.584358 -60.11446 -424.94522
63.874123 -61.440044 -425.04401
66.810577 -58.340042 -415.66553
-33.150368 -87.932602 -406.61682
-32.709225 -89.107063 -406.55252
-81.162933 -63.886356 -402.90625
-11.444865 -4.510551 -405.73141
-90.140533 -30.469727 -399.11853
-89.749573 -31.730257 -399.44284
76.51944 -32.928036 -416.30756
77.343987 -31.892614 -416.08102
-86.410316 23.773422 -396.72336
-85.755043 22.095175 -396.84775
-85.647781 25.099911 -396.7468
-87.921921 24.114038 -396.58276
108.01406 -51.464455 -399.49103
105.85274 -52.089916 -399.19958
107.91936 -54.373764 -399.45975
108.58296 -52.897526 -399.55566
15.11162 -72.582291 -410.33353
16.104977 -72.075417 -410.49039
14.694071 -71.655151 -410.38919
15.497417 -70.633385 -410.44034
56.275269 -16.784142 -413.17731
-85.600433 -32.93903 -401.32498
-41.55582 30.552814 -400.73999
-44.046085 30.584902 -400.28461
103.3456 -24.228672 -417.84235
104.45664 -24.054182 -418.00464
-44.236538 -73.781029 -404.78299
-45.681774 -73.346039 -404.83124
-43.507126 -72.499855 -405.3237
-9.8964071 -63.030273 -408.18423
-11.332579 -62.655785 -408.01297
28.988886 -25.501678 -410.29199
22.487457 -6.0360274 -408.25107
-29.565639 -38.256943 -417.87564
-29.921389 -36.961311 -418.4577
-35.120502 -26.096739 -404.0744
-33.715881 -33.010361 -404.65631
83.540611 43.813808 -426.12787
81.390526 50.070671 -426.65057
91.767731 -52.723049 -416.6416
89.386612 -46.578518 -416.18011
5.9439902 -35.33604 -408.89737
21.847071 28.702343 -374.20847
21.775553 28.706758 -374.33597
-48.29768 -94.037582 -415.3978
-8.120944 -79.990753 -407.99707
-33.572777 -91.231911 -403.69821
34.418468 -68.027557 -410.83191
-81.488625 -32.182903 -400.53934
61.856461 -49.1227 -415.0206
62.225315 -50.107273 -415.11047
5.0341268 16.212641 -406.20865
4.4417257 17.646399 -406.09842
6.1375542 19.550289 -406.16272
6.7258692 18.08952 -406.2984
0.72946852 -70.615288 -409.45096
1.3452623 -71.998032 -409.55997
-0.42779088 -49.914017 -407.82285
-2.9320085 -49.23085 -407.9838
-1.0400054 -48.396221 -407.79019
-12.589911 -80.899933 -407.99991
-69.341545 -8.9109449 -367.19937
-51.5863 -89.304688 -415.16724
-52.224735 -87.881073 -415.04681
-22.596737 41.715698 -401.96783
-23.17325 43.168888 -401.86826
-24.711946 40.766914 -401.77328
-24.638624 43.782223 -401.48865
-25.356686 42.463634 -401.5141
-26.804752 43.077766 -401.12195
-85.292557 -15.543347 -398.45654
-16.662889 -49.449074 -406.70953
-16.172642 -50.696312 -406.78995
-9.9913445 -47.463329 -407.76889
-16.174601 37.942818 -403.46365
-44.788826 29.257524 -400.32867
-22.615381 38.668751 -401.97717
-23.18104 40.154099 -401.87906
-27.935036 -29.340158 -418.91974
-28.527098 -27.839298 -418.68567
-30.346836 -29.74066 -418.69458
-4.2487636 16.948442 -417.83368
9.4246168 33.898834 -403.5838
-28.507744 -11.044086 -404.15427
-50.935066 22.231373 -400.56403
47.161045 -60.620789 -423.27203
91.826286 16.623438 -426.42795
91.229858 18.130627 -426.20877
-47.646336 4.0809498 -413.80048
-34.309368 -25.08264 -404.46365
-33.612343 -30.305443 -405.01691
-32.869793 -32.272865 -405.36746
99.16748 5.2488189 -430.50842
-114.36179 13.553598 -396.44104
44.521725 -61.145111 -412.93057
-72.242867 -1.5999706 -366.16739
-0.49898738 -39.621407 -420.82599
68.62278 -62.306633 -412.93936
-31.362785 -90.424652 -404.17294
-51.722626 -97.118187 -413.06747
57.82383 -53.002609 -424.21753
3.4778647 -10.622741 -407.17371
68.455452 5.7391133 -412.11877
93.241821 -31.001997 -416.4632
93.832031 -32.430786 -416.27576
94.689919 -31.377638 -416.37082
94.110809 -36.059376 -416.58182
-7.0149026 -45.786701 -408.57965
-44.42638 -93.204643 -415.47046
51.980694 -49.067703 -414.04752
20.041527 -42.218979 -410.1633
20.581606 -43.617344 -410.41071
22.054108 -44.257332 -410.72275
62.189323 -28.259901 -413.77713
63.09079 -30.506737 -414.15204
65.125923 -29.378181 -414.27179
63.689457 -28.918335 -414.06796
65.712349 -30.848974 -414.37155
-1.9447813 -76.310112 -409.203
