ply
format ascii 1.0
comment PCL generated
element vertex 1491
property float x
property float y
property float z
element camera 0
property float view_px
property float view_py
property float view_pz
property float x_axisx
property float x_axisy
property float x_axisz
property float y_axisx
property float y_axisy
property float y_axisz
property float z_axisx
property float z_axisy
property float z_axisz
property float focal
property float scalex
property float scaley
property float centerx
property float centery
property int viewportx
property int viewporty
property float k1
property float k2
end_header
67.196312 18.410519 -411.40472
51.96904 15.751392 -410.62344
52.610577 14.227886 -410.7973
53.149605 12.796778 -410.93884
50.350994 13.581685 -410.52933
50.987255 12.077493 -410.65195
-18.184172 35.386543 -416.12338
86.350761 -6.5945997 -426.10251
64.079803 -58.926445 -425.10736
55.700798 -30.581511 -413.36288
56.276798 -32.026058 -413.47162
54.480053 -33.729767 -413.5687
55.997307 -34.408894 -413.70477
92.418755 22.166616 -428.96024
79.344711 38.802425 -411.88647
9.5565557 38.12331 -405.30896
-9.3740463 26.311693 -417.10022
74.409729 -12.126674 -413.99783
74.372986 -8.8501444 -413.65024
73.849876 -10.677128 -413.75238
75.863388 -9.46733 -413.65643
76.520607 -11.044729 -413.90427
73.84729 -10.69769 -413.6514
76.545921 -11.064695 -413.5896
58.233315 -30.674059 -413.41388
57.820896 -32.747116 -413.44699
57.819324 -32.746216 -413.47153
59.326725 -33.431343 -413.79526
59.709694 -31.288328 -413.60211
46.988258 18.896317 -409.61346
47.617455 17.387272 -409.78174
48.186607 15.930656 -410.03406
49.397411 19.081457 -409.905
49.70776 15.270004 -410.26901
50.014622 17.588549 -410.00266
51.538357 19.990093 -409.89981
51.456676 17.151035 -410.22012
52.11557 18.536551 -410.19775
49.720104 15.261955 -410.15424
-21.405323 -35.810005 -419.81152
-20.687599 -37.522171 -420.02518
-20.552874 -34.61301 -420.01318
-19.929529 -36.160183 -420.04367
-19.198486 -37.887638 -420.12073
-19.223639 -34.860706 -420.21262
-18.549263 -36.288914 -420.11276
-17.865986 -35.006256 -420.48105
-26.573357 -44.003304 -405.72574
-26.137892 -44.941204 -405.67197
-28.227119 -46.147213 -405.44669
-27.477711 -44.814293 -405.51123
26.715544 -67.949669 -411.78403
-2.3637652 31.437551 -405.07773
75.79258 -31.134378 -415.4877
15.036803 42.886456 -405.76984
15.657802 44.43708 -405.72159
17.3564 46.355869 -405.83228
16.765873 47.822754 -405.69498
14.478938 47.377277 -405.47379
15.063719 45.926571 -405.62451
82.084946 -37.454754 -416.07278
83.613327 -38.135563 -416.12952
84.004181 -36.012054 -415.98309
30.342672 24.854073 -374.77988
51.133354 52.252434 -409.0141
-7.0329189 -43.403202 -421.48453
-7.4151764 -42.321426 -421.39594
-18.098413 -43.708946 -420.2485
-18.618904 -42.584816 -420.13049
-78.644165 26.995855 -396.65247
-77.06208 26.143656 -396.8078
-76.385384 24.726549 -396.9342
-75.556061 26.059275 -396.97687
-74.910187 24.383554 -397.13147
63.869926 -61.446461 -425.01242
-27.326439 -37.27002 -419.37033
-26.352423 -36.405361 -419.41678
-43.001518 8.0391264 -415.12509
10.293399 -33.474655 -408.87558
9.5049763 -31.522417 -408.75134
10.902017 -31.920187 -408.86697
20.18503 -6.4451218 -407.40283
-56.158184 -11.939943 -400.79202
-54.630302 -12.55757 -400.99091
-54.46629 -10.10393 -400.92868
-53.164803 -13.229876 -401.11914
-52.801968 -10.640596 -401.07285
-51.184265 -11.51214 -401.15799
63.041527 34.85815 -410.33981
61.720871 31.983688 -410.01251
60.872185 34.220989 -409.93298
62.411201 33.583172 -410.00919
60.132496 32.870918 -409.99051
-4.8211427 21.306166 -417.98099
-4.2665381 23.155634 -417.88815
-3.8804879 22.136557 -418.00876
-44.516266 2.52092 -414.57104
72.271011 -0.64239407 -413.13559
63.340122 -37.349648 -415.47986
64.318665 -36.708786 -415.46033
37.913723 10.59532 -409.51685
37.349323 12.033352 -409.39783
33.540329 12.268304 -408.93634
35.6106 10.162542 -409.39301
35.04948 11.582018 -409.2254
36.22662 8.6503143 -409.43283
22.429955 -60.429203 -411.35092
23.901253 -61.033203 -411.58069
22.843033 -58.401497 -411.32394
24.261854 -58.879154 -411.57959
20.910883 -59.733154 -411.15164
-40.772083 -21.300783 -402.90729
-39.202682 -18.966467 -402.91968
-38.61068 -20.392721 -403.1145
94.884132 5.299315 -427.28149
96.492882 4.4017649 -427.49692
94.103874 3.9322362 -427.23471
17.317265 12.789638 -406.90057
17.883724 11.344256 -407.0061
-8.0971136 42.502232 -403.86734
-5.8836432 43.188839 -403.94708
-8.6859694 43.958935 -403.74802
-6.4640141 44.646236 -403.85611
-27.934776 -29.343506 -418.89752
-27.369333 -30.929411 -419.06497
-28.526958 -27.843023 -418.66028
-26.448622 -29.685373 -419.07654
-25.706017 -28.383274 -419.07098
-24.206827 -29.109333 -419.55469
100.77145 -54.552757 -398.8674
101.58956 -53.575554 -398.97858
-0.36162651 20.366838 -404.84149
-0.30356765 23.294987 -405.00845
0.31036818 21.835169 -405.26318
0.88441491 20.365753 -405.55588
3.984159 -57.916138 -409.5762
2.6508565 -57.7729 -409.56076
3.4556575 -56.771896 -409.7049
8.8159723 -23.450497 -408.55347
-2.1507821 -5.7563181 -406.10602
-1.1505316 -5.1323423 -406.18369
-32.916595 -53.526291 -405.32077
-31.449112 -53.880802 -405.49432
-34.081772 -50.587044 -405.00238
-33.509579 -52.082306 -405.1608
-31.410629 -50.894634 -405.35776
-30.827805 -52.367863 -405.51172
6.0324163 -59.760887 -409.32117
6.6461463 -61.149014 -409.44141
22.052959 7.1226082 -407.6553
21.48497 8.5385571 -407.49695
23.476208 6.6536121 -407.94418
73.922539 54.151943 -422.466
75.024445 -13.634075 -414.33255
75.641731 -15.145119 -414.37015
77.178139 -15.822256 -414.46695
77.152451 -12.695242 -414.37119
77.702835 -14.134552 -414.49203
75.183716 -17.170504 -414.4881
-17.741646 38.821316 -402.71918
-48.907284 -26.797215 -402.38327
-47.363316 -27.42131 -402.54062
-46.681931 -25.836565 -402.54395
-47.816017 -22.902603 -402.19763
-47.273869 -24.404898 -402.35199
-47.214531 -21.421885 -402.18787
-45.201996 -26.528551 -402.75665
-44.487473 -24.900219 -402.71899
-45.662071 -22.024872 -402.35678
-45.102135 -23.517183 -402.50452
31.256319 15.419016 -385.49646
-49.154819 13.914583 -413.69412
38.203186 -36.246742 -412.00391
39.6283 -36.725395 -412.14771
-0.079357505 34.872169 -404.68546
0.32394779 36.900066 -404.59949
90.316887 -23.686928 -415.58209
88.825989 -19.798075 -415.37119
90.32431 -20.432632 -415.52457
90.914146 -21.918406 -415.62155
88.086197 -21.119806 -415.37192
88.708885 -22.79529 -415.46857
-56.010742 -22.120224 -401.24973
-54.262169 -23.332598 -401.40967
-53.866688 -21.037245 -401.38498
-55.339706 -20.351725 -401.12845
69.178726 -51.813068 -415.61313
70.619728 -52.266773 -415.6167
71.297852 -50.914402 -415.75247
25.156818 8.6067381 -407.89618
23.681114 9.2381086 -407.66135
25.732698 7.116538 -408.36926
-26.394974 2.6607795 -403.13666
-25.835587 1.1816618 -403.28339
-24.310614 0.5742898 -403.43423
-24.091774 3.0926619 -403.37476
-22.569418 2.4825025 -403.56082
-28.623085 1.9524295 -402.84857
2.0059133 32.782684 -405.24649
2.609045 31.342175 -405.37848
15.76979 -50.095684 -410.14261
14.359102 -49.567795 -409.74689
14.770124 -47.559795 -409.79495
16.28681 -48.259392 -409.97327
-55.624966 18.269674 -399.58893
25.907747 27.520149 -374.08572
-37.456059 -36.169098 -404.02325
-36.831848 -34.229916 -404.00159
-35.980892 -36.515778 -404.15936
-35.312885 -34.840351 -404.18375
99.947083 -16.114779 -416.47729
101.46104 -16.557322 -416.59705
100.70663 -14.585667 -416.5394
102.24188 -15.234819 -416.66083
3.9389539 -25.891062 -421.9711
13.974295 -51.863518 -410.42172
-46.178955 -68.963844 -404.24905
-47.666744 -68.563049 -404.1748
-45.99564 -66.137405 -404.30096
-45.384483 -67.592896 -404.31473
50.697697 -45.842171 -413.56021
49.317593 -45.469036 -413.5589
82.058929 4.5998116 -425.67847
80.640373 4.5868359 -425.12601
83.467964 -5.785718 -425.39441
71.319656 -7.5275669 -413.6763
-64.105721 13.72794 -398.95963
-66.166031 15.524104 -398.75146
-65.62011 17.588142 -398.68253
-64.701233 15.168867 -398.8988
-62.634136 13.374945 -399.11139
-62.120522 15.158043 -399.08136
-64.153229 17.236065 -398.83707
-62.64484 16.619362 -398.96417
18.625614 -54.141018 -410.84622
19.253517 -55.59449 -410.69553
17.040325 -56.213062 -410.35745
42.40485 -43.763851 -413.35138
43.337719 -42.974209 -413.27179
15.341259 17.686827 -406.64746
-6.8812189 29.642885 -417.40845
99.834465 -21.882336 -416.49005
101.196 -22.372437 -416.82538
96.55088 -26.45509 -417.35294
97.815605 -26.396109 -417.51892
96.99144 -27.492954 -417.42303
-43.270985 2.6341667 -414.80524
-42.388874 3.751528 -414.81644
81.600136 6.0401015 -425.35037
29.292492 27.541563 -374.53714
-1.4969219 32.243561 -404.88611
-1.9267648 33.479374 -404.78757
-26.917725 37.051205 -401.61502
-28.405903 37.681274 -401.42487
-26.392277 38.86274 -401.58194
5.8846149 -1.1403327 -406.86157
3.8017325 0.9719727 -406.44742
5.2850537 0.36917186 -406.65518
4.054533 -2.7236278 -406.74243
1.9734505 -0.63251328 -406.42017
3.4654508 -1.2748544 -406.63345
78.977455 -45.292088 -416.16556
79.585571 -46.787598 -416.17776
79.511459 -43.497791 -416.15793
76.037727 -44.184261 -416.06216
77.469856 -44.630489 -416.11261
78.007507 -42.850628 -416.05743
81.032227 -44.166759 -416.21735
-34.616859 -11.281359 -402.95703
-34.015511 -12.686138 -403.09229
-3.628396 18.283583 -418.54178
8.2049608 -22.333851 -408.59927
-5.7576218 36.646679 -404.40329
75.823601 -18.718338 -414.63376
76.546288 -20.484724 -414.74429
78.365898 -18.80089 -414.737
78.906509 -20.21711 -414.90439
80.393921 -20.725502 -415.00388
80.365776 -17.57243 -414.77939
80.997025 -19.116518 -414.91003
77.734032 -17.260139 -414.56775
22.958376 -67.604515 -411.06476
49.931263 55.453098 -408.61447
47.129272 55.924877 -407.75375
48.593971 55.554832 -408.04092
49.006699 57.367626 -408.15732
-48.527946 6.0068188 -413.91077
4.7320151 -24.951696 -421.63388
68.49633 -34.691631 -415.56
68.93515 -35.840927 -415.91733
5.6258059 14.724235 -406.34888
4.4378915 17.64245 -406.12979
5.0308576 16.207794 -406.23853
106.49294 -53.546623 -399.3063
107.93903 -54.376892 -399.5101
-50.502121 14.045498 -413.46259
76.95179 53.407166 -423.02408
91.351715 -54.347736 -416.93796
30.123981 -45.920788 -411.78012
30.579924 -47.295025 -412.38269
-37.242123 -84.609207 -406.07001
-35.785847 -85.03138 -406.21326
-35.244125 -82.816971 -406.20358
-34.245293 -85.248772 -406.36398
-36.773369 -82.58783 -406.02835
35.989399 -49.084095 -412.04147
36.608566 -50.555477 -411.84998
-29.889851 32.762459 -414.61551
-28.569197 32.641674 -414.94202
111.11806 -34.130192 -418.03748
13.573153 -8.0635395 -408.46646
15.773624 -7.3999453 -408.63617
55.983139 -37.544106 -414.17007
43.270607 -30.42277 -412.35104
44.717915 -31.024309 -412.61057
45.348259 -32.559494 -412.77557
43.530045 -34.15498 -412.5289
41.422871 -31.981104 -412.10168
42.889336 -32.625187 -412.38428
93.937622 -29.45373 -416.7789
95.302971 -29.852861 -416.62732
93.543602 -28.461267 -416.95868
-33.245686 -28.695602 -417.51685
-46.965836 5.3887329 -414.10947
-45.900173 5.9924197 -414.2149
37.878139 -56.795544 -412.29352
38.394711 -55.031746 -412.25528
37.780407 -53.507534 -412.20822
-11.937195 -43.077244 -421.03632
-10.685719 -42.993824 -421.22183
-69.02433 10.014349 -398.44803
-68.360664 8.6083565 -398.45911
-66.914841 7.9646549 -398.6853
-65.476418 7.6059904 -398.93063
-67.126549 11.69488 -398.63239
-66.551102 10.252854 -398.77197
-66.357964 13.022191 -398.75485
-65.108078 9.8999109 -399.02258
-64.82946 12.414487 -398.8707
-63.377033 12.059764 -399.0694
-44.251873 -73.810387 -404.97958
-42.737301 -74.152977 -405.01715
-45.696293 -73.367256 -405.0282
-43.507191 -72.510658 -405.31372
-42.035305 -72.905312 -405.26251
9.1277132 51.460167 -404.69806
9.7328377 50.002377 -404.65747
8.0420141 48.097366 -404.51086
7.573709 49.558964 -404.5647
13.385168 19.836847 -406.04736
6.3478403 22.058067 -405.81442
4.6708202 20.188263 -405.85767
6.146472 19.538294 -406.03183
93.746925 -25.823631 -416.44513
-58.198006 -23.154736 -401.02496
-59.796013 -22.254732 -400.80762
-59.63641 -19.528173 -400.62927
-58.107895 -20.155487 -400.84451
-57.563709 -21.640539 -401.01202
7.6564093 -39.221382 -408.82193
8.2596216 -40.727261 -408.91818
24.040501 5.2244444 -408.09311
25.518286 4.5788493 -408.54129
28.034485 -22.324213 -408.43332
-3.6008854 43.640003 -404.14713
-1.5520529 44.570911 -404.33936
78.606247 -22.563675 -414.95679
80.09803 -23.183092 -415.07999
80.747429 -24.748753 -415.18265
78.484047 -25.378756 -415.17166
30.162855 -31.504465 -410.45557
30.777058 -29.931234 -410.46307
28.668726 -30.888098 -410.19788
77.236534 -50.241428 -416.10504
77.684113 -48.241474 -416.12723
75.713402 -49.556908 -416.01016
77.093185 -46.767372 -416.13132
75.114403 -48.074017 -416.00333
75.55114 -46.056839 -416.0766
88.085197 18.945417 -425.31125
-47.330811 12.540971 -414.12961
22.110489 33.633446 -376.30411
20.766857 33.883839 -377.04889
-9.4859715 39.861359 -403.70242
-10.878428 40.215214 -403.49194
-10.086946 41.319607 -403.66391
-10.673351 42.775166 -403.517
-0.71956074 27.283728 -405.28339
-0.099894762 25.832258 -405.27213
1.5879105 27.727692 -405.44766
1.3942193 25.203938 -405.48221
-12.982307 -64.778175 -407.83478
-14.253139 -62.028347 -408.01889
-13.614445 -63.340168 -408.00034
-13.392128 -60.817852 -407.9751
-12.023211 -61.467258 -408.27155
-11.356854 -62.683926 -408.24881
-40.983944 -33.654034 -403.48578
-39.524361 -33.986378 -403.70004
-42.424244 -33.267731 -403.30862
-41.824848 -31.410677 -403.27185
-40.289383 -32.026535 -403.48489
13.740056 15.52822 -406.41333
13.159893 17.016111 -406.30258
95.922859 -45.368637 -398.70453
97.303337 -45.792667 -398.61993
-11.299299 -41.46516 -421.08783
-10.752009 -39.598827 -421.0347
-20.498552 -71.383995 -407.37088
-19.057005 -71.787376 -407.48917
-17.610975 -72.157509 -407.64627
-19.87826 -69.906456 -407.35184
-18.406021 -70.202385 -407.51257
-16.979301 -70.635223 -407.67953
77.097824 43.195446 -423.43201
41.777462 -5.1346807 -410.61893
42.486485 -3.7806113 -410.60507
40.277504 -4.5223799 -410.35095
42.557186 -3.8084371 -410.24139
60.124821 56.094563 -420.89783
62.342953 56.791843 -421.26385
63.08569 55.333054 -421.44031
43.892067 -62.676113 -413.10992
-9.56077 -8.3505068 -419.57651
-11.189131 -69.132172 -408.22827
-10.581649 -70.573586 -408.29166
-8.5598316 -69.612 -408.46573
-7.8386154 -71.203087 -408.61917
-6.2809629 -68.865921 -408.6405
-9.4440565 -67.344193 -408.30493
-7.9097462 -67.943092 -408.51782
85.958031 -34.599567 -416.00333
87.321098 -34.950092 -416.0267
87.882332 -36.299824 -416.16397
85.448532 -36.470882 -416.11682
-24.959675 -14.175533 -418.32425
-23.502262 -14.530523 -418.5163
-22.022844 -14.861328 -418.69159
18.802906 3.1040766 -407.3363
18.560022 0.53679276 -407.36594
17.04567 1.1722673 -407.10519
18.781853 3.0727894 -407.14297
17.05547 1.1598868 -407.06882
74.005997 -4.8029728 -413.57562
75.492065 -5.4150753 -413.71979
76.99826 -6.0538912 -413.8161
76.243782 -7.3522081 -413.83072
7.6967669 -51.41539 -409.14587
8.4226236 -50.246613 -409.18253
7.8160801 -48.764664 -409.14969
-48.183102 -19.014687 -401.89548
-46.708241 -19.324152 -402.13962
-45.183025 -19.959352 -402.33124
-47.866447 -16.438623 -401.75421
-47.495274 -14.145391 -401.74304
-46.367008 -17.08263 -402.03473
-45.874271 -15.011227 -401.94098
-44.893463 -17.76549 -402.27921
-44.361813 -15.640623 -402.18851
23.248432 -65.329674 -411.14404
24.661951 -65.774872 -411.32675
-50.555088 10.982826 -413.60468
29.676359 -21.104137 -410.20087
30.313576 -22.608524 -410.21265
30.315359 -22.611609 -410.186
30.293941 -22.61928 -410.27734
20.225735 -15.358191 -409.48813
19.651957 -13.945532 -409.30032
-17.223606 40.670166 -402.57513
-16.636202 39.212822 -402.77557
-39.25761 -57.072338 -404.77246
-38.477188 -55.724442 -404.81973
-37.020088 -56.102139 -404.95883
-40.646862 -53.662987 -404.61078
-39.944252 -55.357182 -404.68298
-39.185261 -54.03944 -404.75375
-38.775299 -52.099274 -404.66437
-37.720264 -54.417721 -404.82626
-37.250359 -52.359718 -404.798
-35.792164 -52.724045 -404.96994
-35.1786 -54.131046 -405.11722
15.396594 -64.368492 -410.54401
13.290541 -62.258518 -410.23993
14.790826 -62.827755 -410.42117
11.664995 -64.403999 -410.19022
13.176434 -65.064735 -410.37088
25.482964 10.88466 -407.95087
24.852287 12.373729 -408.01324
27.051479 13.016459 -408.31738
-33.889099 -35.341736 -404.50714
15.683239 -4.087636 -408.17645
15.081019 -2.6205299 -408.0217
-2.6272125 -4.5070038 -405.93707
-3.214035 -3.087486 -405.80206
-1.7413884 -3.6271193 -406.07364
-2.5142984 -1.7415407 -405.88364
96.816673 -33.354053 -416.72125
95.322563 -32.894135 -416.49274
76.350166 41.822891 -423.22403
-38.976494 -67.37796 -405.18939
-38.232983 -69.73159 -405.8544
-37.14542 -69.112541 -405.91342
-37.420292 -67.858162 -405.61823
-36.74081 -66.417114 -405.32999
-38.175926 -65.9506 -405.15524
-49.74728 8.9851894 -413.71725
71.692238 0.90666652 -413.15082
72.491684 2.0637977 -413.07248
98.833504 -25.642553 -417.42801
-49.270981 -9.8222427 -401.38345
-48.710419 -11.292355 -401.50082
-48.091702 -12.699101 -401.68323
-47.181679 -8.6329956 -401.59058
-46.632515 -10.111979 -401.70877
-46.028057 -11.544263 -401.82364
-48.71851 -8.0279703 -401.37344
-46.822491 -6.3530455 -401.55295
-45.206959 -7.2272053 -401.6387
-44.633366 -8.6843662 -401.75851
-2.8690891 -77.137001 -409.14728
-1.9383458 -76.316208 -409.16776
-1.2193073 16.457741 -405.30789
-0.66495168 18.210789 -405.14969
0.66586637 17.844505 -405.62723
84.439545 -4.6647635 -426.10043
33.151421 -45.086628 -411.58377
3.932981 12.836166 -406.12564
4.5311627 11.371611 -406.19644
5.1275868 9.8820982 -406.37451
3.3348351 14.296451 -406.07315
-15.343901 -80.766731 -407.8963
27.590052 -28.01136 -409.14044
21.532383 -3.1182334 -406.81259
-5.3095617 41.728973 -404.1178
-4.7121429 40.280128 -404.28021
-62.470692 32.109001 -398.27637
-61.746475 30.44179 -398.51294
-60.245537 32.820354 -398.51245
-59.585026 31.386883 -398.67996
-57.996918 33.543999 -398.81577
-57.460613 32.108257 -398.91656
57.546505 -41.456486 -414.85757
48.943336 -58.88929 -423.98416
-2.6049562 -22.44706 -421.11731
-1.416262 -22.169064 -421.18835
28.077124 -29.395105 -410.02161
-43.821758 -81.343246 -405.09561
-42.322826 -81.666771 -405.33441
-42.086937 -79.274078 -405.17194
-40.413845 -79.642159 -405.41476
-39.747601 -81.418671 -405.58545
74.342659 38.317406 -411.66849
75.836296 38.002758 -411.56714
20.903248 -50.801311 -411.54572
22.230106 -51.048401 -411.73007
22.713247 -52.149391 -411.59308
-5.5592904 19.945301 -417.95355
-12.351171 -7.789608 -419.11084
-11.941344 -8.7569256 -419.24481
-46.383648 -52.391747 -403.92493
-44.938358 -52.792995 -404.12668
-43.470139 -53.131329 -404.37433
-47.018139 -51.009369 -403.78943
-46.337742 -49.458164 -403.7265
-45.505508 -48.040756 -403.72186
-44.785332 -49.653889 -403.94592
-44.266518 -51.228386 -404.14224
-42.812023 -51.627167 -404.26691
-41.269333 -52.261909 -404.49582
-40.566368 -50.649658 -404.4231
-43.181496 -47.352642 -403.88568
-42.592724 -48.796829 -404.05444
-42.021622 -50.290691 -404.19037
14.468451 -53.221745 -410.78687
15.890029 -53.650871 -410.81927
16.422535 -54.75732 -410.57629
16.784933 -52.81842 -411.03537
-0.52637804 -27.523703 -421.54117
0.11341953 -25.921457 -421.46701
-1.9814078 -27.096865 -421.38956
-32.480186 -41.942795 -404.91174
76.523972 -32.930653 -416.27792
77.339645 -31.899862 -416.05838
-21.369158 44.829021 -401.99124
-19.171778 45.523319 -402.12863
-17.707661 44.91151 -402.46774
-17.102283 43.449554 -402.56509
-16.965359 46.219273 -402.30292
108.60385 -52.898571 -399.60388
108.61778 -49.771847 -399.52133
110.14935 -50.932365 -399.78067
108.03427 -51.465744 -399.55829
83.119431 35.797768 -412.57822
92.64151 14.305635 -426.81271
79.074776 -26.855824 -415.23734
77.613228 -29.454473 -415.32144
78.450966 -28.418688 -415.26764
76.996574 -27.869469 -415.26572
41.800426 -51.273518 -412.81754
42.388313 -52.718872 -412.86353
60.053955 52.946152 -420.94012
62.363232 53.667103 -421.19211
61.608871 52.291199 -421.06772
60.732666 54.576485 -420.9978
94.101326 10.734665 -427.03967
-33.844627 -38.526688 -404.55084
-33.042889 -40.409115 -404.77756
-32.394058 -38.949673 -404.70291
69.766212 -34.78532 -415.85727
71.095108 -34.98185 -416.04517
14.908666 -32.717709 -409.50278
18.488852 -35.464512 -410.02393
15.483515 -34.154926 -409.68118
16.075171 -35.597855 -409.76117
16.606056 -30.803946 -409.60654
17.214279 -32.350582 -409.81924
17.87866 -33.970776 -409.97308
-6.2447276 21.677073 -417.81082
-6.8759251 23.1569 -417.78128
86.234024 28.122644 -413.25522
103.00071 -17.213173 -416.80389
58.093864 9.8716393 -411.67868
58.940296 10.859222 -411.51611
57.481873 11.386144 -411.35757
-57.724228 -40.634964 -401.94165
-56.111004 -41.210705 -402.1864
-55.62801 -39.504101 -402.16449
-54.7108 -41.633202 -402.38086
-54.121346 -39.897007 -402.32761
-53.389889 -38.197727 -402.2962
-52.646435 -40.179916 -402.51703
-57.240421 -38.595196 -401.92056
-56.424702 -37.231392 -401.93289
-54.939701 -37.952286 -402.09592
-54.093388 -36.535847 -402.13132
-51.94474 -38.595165 -402.4754
89.14399 -30.057032 -416.75906
89.955696 -28.826517 -416.80792
90.83036 -31.211458 -416.50964
90.403786 -29.992933 -416.8038
91.34803 -29.18033 -416.91159
75.619835 50.139145 -422.92712
74.094269 50.529606 -422.66891
74.884384 48.764271 -422.88666
-47.376518 6.3789654 -414.03424
-9.3028288 -3.2023447 -405.14264
-8.2179985 -2.9767978 -405.164
81.514236 10.711554 -413.16504
79.628624 9.4487486 -412.94211
80.258347 7.9518251 -413.06573
76.552856 10.749958 -412.54529
78.977547 10.951915 -412.82437
94.872849 -34.968582 -416.70596
93.459831 -34.740585 -416.48169
48.480244 -57.762737 -423.76773
52.312965 -16.0331 -412.67349
52.68214 -17.015352 -412.62347
51.522724 -17.103802 -412.47684
-8.0945435 39.485699 -403.89868
-7.5013285 41.041828 -403.93408
-6.8075247 39.340908 -404.05423
-18.205223 -55.155071 -406.966
-17.617414 -56.644588 -407.05389
-17.004515 -58.076954 -407.12076
-15.441408 -58.596218 -407.26016
-15.635971 -55.190197 -407.21127
-15.013521 -56.586967 -407.28195
78.574043 37.453571 -411.78403
77.80011 36.108376 -411.70084
34.064896 -47.549053 -412.42563
34.983562 -46.766674 -412.54309
50.581078 63.589092 -419.47766
52.089138 63.2159 -419.73456
51.189705 65.469208 -419.45578
52.675667 65.090652 -419.66306
86.689743 -27.084139 -415.63235
87.190239 -28.309004 -416.23929
38.243462 -11.726911 -410.79269
33.95636 -10.263157 -410.1076
34.538315 -11.719067 -410.19141
34.670715 -8.9485397 -410.15466
36.132988 -9.5714884 -410.46716
36.720261 -11.033744 -410.50784
62.551151 -61.323624 -425.07562
-30.35041 -29.743963 -418.67169
-29.757967 -31.252901 -418.9108
-10.199867 28.312063 -417.17111
-9.1827545 28.917208 -417.29178
-10.63866 29.303915 -417.17047
-29.845325 34.984623 -401.45209
-28.934649 35.877155 -401.50607
-43.834015 -68.263947 -404.53458
-42.411968 -68.772446 -404.86691
-40.998798 -68.579002 -405.13708
-43.300785 -66.487968 -404.64993
-41.761002 -66.761108 -404.82138
18.440369 -59.701351 -410.70602
16.616934 -61.274963 -410.5358
17.216801 -62.756664 -410.65338
19.123774 -61.349728 -410.82874
20.614779 -61.970989 -410.98944
18.726122 -63.433903 -410.83914
6.1436887 37.581203 -404.59158
44.301853 -57.26836 -413.38019
-12.161653 3.7595346 -404.45575
-11.562848 2.3221524 -404.55219
-10.986429 0.8252635 -404.70749
-48.474369 21.924759 -413.35367
-48.060905 20.936003 -413.37964
-6.9514656 -37.16375 -421.21411
-9.119935 -38.010723 -420.92377
-8.0780993 -40.70919 -421.1933
-7.5685577 -38.723064 -421.12579
-48.923485 30.142982 -399.76288
-48.294651 28.410591 -399.944
-47.390751 29.553799 -399.97037
25.235619 -67.21064 -411.40704
46.413055 -41.410526 -413.51926
-33.73262 -83.588028 -406.32632
-34.439312 -81.428505 -406.18158
-33.016613 -81.925735 -406.34076
-32.232212 -83.91272 -406.4921
-31.516495 -82.177322 -406.5546
27.291986 26.934237 -374.26477
81.649963 36.187851 -412.41809
80.215706 36.575535 -412.13843
74.634018 52.40419 -422.68024
75.410484 53.776154 -422.80075
-15.826834 -2.5827005 -404.28247
-15.828783 -2.5798934 -404.30884
72.605431 4.8842316 -412.87708
70.467743 3.9616375 -412.81903
69.822319 -50.302784 -415.68939
70.288017 -48.417435 -415.68356
68.307472 -49.634975 -415.57166
-30.792465 -18.990803 -418.01077
-29.928444 -17.979057 -418.06302
-6.2386794 -16.572651 -420.43549
-5.3011947 -15.720566 -420.49802
86.136192 -25.668644 -415.40564
84.625229 -25.106825 -415.35638
88.124222 -24.405645 -415.45734
86.663551 -23.968203 -415.40594
86.708427 -52.126671 -416.6113
88.156578 -52.609261 -416.7442
97.676178 -1.818435 -427.91394
3.6383872 -4.7890177 -406.90375
5.1228471 -5.4086657 -407.10938
5.5483513 -3.3943751 -407.03439
5.7326255 -6.9227991 -407.31729
19.326283 -0.94021368 -406.89859
20.763338 -1.6177104 -407.10001
19.167368 -0.90510678 -407.35989
-17.460814 -14.131168 -418.35419
-18.08535 -12.680793 -418.25211
-17.292385 -11.287836 -418.22012
38.815216 51.685844 -407.46439
39.403378 50.213207 -407.60535
40.908051 49.577312 -407.75922
40.9478 52.622936 -407.55402
41.526768 51.148846 -407.70108
42.414661 48.942142 -407.91559
43.019089 50.514736 -407.9053
-25.925425 29.282385 -415.20483
-25.318937 27.777086 -415.45129
-23.080927 28.477495 -415.76077
-24.237406 31.480015 -415.41849
-23.652859 29.984247 -415.47137
98.640366 -0.4994545 -428.04883
44.889099 -64.958572 -413.29468
6.4303102 30.514238 -404.84161
-59.277748 4.9485683 -399.84271
-56.799263 5.4538956 -400.08176
-60.01091 6.8910494 -399.75809
-58.403557 6.3098426 -399.88675
-56.13821 7.0131168 -400.06616
-46.522118 7.4763651 -414.05847
91.107903 18.12845 -426.45627
-29.072462 -36.136356 -418.96124
51.965435 -49.023331 -414.11328
32.897896 10.913662 -408.82916
31.723587 7.5650835 -408.99115
33.440834 9.4419422 -409.07245
34.014584 7.9959822 -409.2146
31.118389 9.0706615 -408.76346
31.359547 11.572539 -408.57651
31.356577 11.574554 -408.60419
73.588043 -59.52013 -415.82416
-53.772236 23.184954 -399.56815
-54.370346 24.631929 -399.47012
-67.733566 19.353569 -398.37335
-66.251114 19.006067 -398.49329
-67.855797 23.101521 -398.15341
-67.240715 21.40679 -398.32977
-67.206245 24.660583 -398.14453
-66.375458 22.760206 -398.36935
-65.781044 21.05405 -398.50626
-64.111443 19.953196 -398.67966
-64.795204 24.888403 -398.42542
-64.149117 23.459572 -398.54974
-63.504047 22.03084 -398.6752
63.223721 -33.914616 -414.40671
63.761089 -35.285866 -414.83554
44.170227 22.741806 -409.50061
44.493168 18.940533 -409.60281
43.902878 20.413198 -409.53308
40.473717 19.649874 -409.33698
41.973965 19.005962 -409.46176
41.796486 22.544239 -409.2525
42.408237 21.046822 -409.43787
43.611866 24.206133 -409.30731
30.732332 -62.672543 -412.49384
32.247227 -63.358425 -412.66116
32.540489 -61.028435 -412.67032
30.149158 -61.229801 -412.35175
-57.066715 -0.32396579 -400.27319
-56.203682 -2.4887145 -400.54523
-55.578243 -0.97553515 -400.46753
-54.646015 -3.3924654 -400.73676
-54.12302 -1.3177497 -400.68588
-56.494854 1.4799713 -400.23312
-55.026569 1.1354191 -400.38779
-53.432312 0.26474929 -400.65948
-52.530243 -1.8835547 -400.8754
-27.72254 -36.286518 -419.21802
4.9291677 -53.849316 -409.22089
-24.305361 -34.90855 -419.4917
-22.875652 -35.464626 -419.63718
-22.634106 -32.804169 -419.69388
-22.014221 -34.286636 -419.75439
-21.213327 -33.185921 -420.1044
98.218689 -27.399656 -417.46301
99.435059 -27.297564 -417.40594
-47.191063 18.711008 -413.74698
-52.096272 9.3775558 -400.89322
54.284214 -39.492687 -414.56781
-50.198265 -42.941139 -403.01953
-48.021305 -41.699821 -403.17377
-51.043339 -41.077431 -402.87613
-50.520203 -38.977406 -402.82446
-49.578671 -41.441467 -403.03949
-49.046677 -39.322739 -403.03662
-47.5849 -39.709087 -403.09497
55.270576 -17.376244 -413.03928
55.740051 -18.343477 -413.0513
58.714546 69.293579 -420.25281
59.604492 70.447319 -420.50711
60.222218 68.922997 -420.52325
59.469189 67.541237 -420.4144
56.456017 68.556915 -419.84012
57.032673 67.048546 -420.07724
57.191086 69.928596 -419.85989
-34.877495 -32.872154 -404.24039
55.269119 -44.909973 -414.23047
56.73724 -45.522762 -414.44391
56.090343 -46.982143 -414.37344
54.636772 -46.440643 -414.28717
60.918999 67.142059 -420.54736
59.103867 65.149315 -420.47034
60.679031 64.504013 -420.57327
57.656765 65.548126 -420.27771
42.746624 -47.628014 -412.90076
40.596489 -48.266857 -412.53931
26.962828 10.240632 -408.19794
27.627024 11.58329 -408.43307
29.049307 11.124565 -408.58023
29.619703 9.7061024 -408.70935
29.030052 8.1124916 -408.73941
27.512037 8.7989092 -408.54483
-6.2200327 15.473284 -417.86761
32.169411 -42.73679 -410.94708
-41.495846 33.572739 -400.30832
-40.030876 33.211926 -400.46222
-43.479088 -78.680435 -405.08823
-42.858379 -77.258286 -405.07196
-42.047035 -75.882233 -405.05554
-41.14328 -78.035583 -405.27686
-40.591129 -76.286926 -405.28394
57.752399 58.752136 -420.42856
59.298313 58.110222 -420.72241
60.060791 59.486874 -420.7829
76.330429 54.920555 -423.02936
59.707165 -46.797169 -414.87613
60.384079 -48.484177 -414.98294
61.181671 -47.370636 -415.09146
-42.684738 -58.419918 -404.52115
-42.001587 -60.139584 -404.63922
-41.192093 -58.737034 -404.70258
-40.485569 -60.408726 -404.84332
2.9831991 -75.899246 -409.42972
28.769211 26.102406 -374.41418
-31.124268 -34.184772 -418.61868
-29.688719 -34.620796 -418.9025
-29.143129 -32.767708 -419.00656
-13.509846 -2.1428497 -404.50174
-13.179203 0.18129396 -404.44543
-12.594567 -1.2664695 -404.60724
53.089584 -27.175432 -412.97998
55.043537 -25.838497 -413.16339
55.632637 -27.310034 -413.25687
56.198448 -28.750265 -413.41537
53.697212 -28.693615 -413.29684
-9.8954973 -63.044819 -408.21194
-9.1882439 -64.753098 -408.1048
-8.430831 -63.394917 -408.13123
-7.675251 -65.467514 -408.29788
-7.0254536 -63.827923 -408.24203
-6.1428747 -66.078094 -408.51083
36.567955 -38.347298 -411.79852
38.017036 -38.828903 -411.97415
-25.883146 -37.744236 -419.56848
-25.462669 -38.7076 -419.68073
-24.90168 -36.875893 -419.53186
-24.296223 -38.36375 -419.73819
0.73383683 -52.75346 -408.53299
0.13672507 -51.324615 -408.40588
2.8692656 -51.868473 -408.65271
2.2684927 -50.422409 -408.55148
40.684361 -17.876665 -411.50946
41.2598 -19.326239 -411.64719
39.586716 -21.268785 -411.50497
41.075275 -21.91518 -411.70734
38.374691 -18.286467 -411.31104
38.949024 -19.723055 -411.37598
-17.752573 34.359249 -416.06604
-17.218828 33.098324 -416.01553
2.1505365 -56.623444 -409.51407
44.995724 -16.28982 -411.75427
44.386513 -14.770185 -411.66931
-11.111654 -1.977453 -404.80765
-10.39194 -0.59331417 -404.85925
-9.8076162 -2.0774477 -404.97418
-10.643726 -3.2112486 -405.05215
-41.095905 -39.617859 -403.80225
-39.56575 -40.271194 -403.93713
-38.106506 -40.614956 -404.12048
-37.544559 -38.811871 -404.10303
-38.987141 -38.431026 -403.93951
-47.958775 7.8673477 -413.93259
34.730148 -33.726009 -411.41653
36.147182 -34.198029 -411.67749
-6.7467098 -15.306358 -420.29623
-7.354269 -13.848042 -420.19952
-5.9053702 -14.211458 -420.34174
7.0370588 29.091059 -404.89426
55.981445 -54.498726 -424.6702
56.482651 -55.749569 -424.72092
78.422638 -37.68042 -415.83624
77.009247 -37.272446 -415.75803
79.138275 -36.361725 -415.92081
79.852112 -38.117023 -415.98221
-2.6721597 -25.378878 -421.17035
-1.3436741 -25.496786 -421.36795
-6.7703018 16.980886 -417.2149
65.242455 -32.747086 -414.46701
65.772598 -34.076488 -414.72595
43.957981 -22.962008 -412.10269
43.371643 -21.486851 -411.91611
45.572803 -20.818773 -412.10229
45.533802 -23.838011 -412.39117
48.158482 -24.168186 -412.47983
46.161385 -22.269791 -412.09854
47.609825 -22.772469 -412.28195
-30.15963 -69.911041 -406.19543
-29.518435 -71.325691 -406.25949
-28.055027 -71.657616 -406.48517
-51.760662 13.937669 -413.3172
43.81316 -56.400509 -413.27023
54.443432 9.6359119 -411.35394
55.263218 10.684977 -411.27234
53.786873 11.275515 -411.08267
-23.30718 -77.16124 -407.28629
-22.647247 -75.582603 -407.29718
-26.16905 -76.286652 -406.90839
-25.658216 -74.629105 -406.85596
-24.744333 -76.760208 -407.05103
-24.178549 -74.897408 -407.08923
59.81226 -19.283648 -413.43176
61.060772 -22.335299 -413.67862
60.471283 -20.850321 -413.55502
62.333405 -19.367105 -413.63181
86.962402 23.28878 -413.69171
-29.401657 -43.203426 -405.23972
-28.892756 -44.366516 -405.31235
82.599739 -29.361601 -415.85233
70.455177 49.94199 -422.26004
68.000885 49.464729 -422.00278
69.645523 48.557301 -422.23462
71.170609 48.169849 -422.36343
71.947441 49.545616 -422.39163
101.88554 -30.167486 -416.95776
103.31497 -30.770754 -417.18051
-49.011936 20.09827 -413.32217
-22.819561 -38.741081 -419.89575
-23.415295 -37.201321 -419.74661
78.147705 -30.772799 -415.76163
17.779314 51.447292 -405.68716
18.372644 49.983997 -405.82236
15.593665 50.759438 -405.45731
16.176008 49.29023 -405.60986
15.702926 53.547199 -405.36505
14.995152 52.220608 -405.35544
17.198048 52.919647 -405.53622
94.319008 -27.155287 -416.98923
94.797913 -28.166212 -417.10178
86.511658 16.228271 -425.44592
85.92231 14.773448 -425.461
-8.3874197 -36.678528 -421.04288
-10.518196 -34.50061 -420.35886
-9.9172659 -36.080585 -420.62201
-8.4068184 -33.300213 -420.49057
-7.9455385 -34.701336 -420.87601
-9.9332533 -36.071407 -420.75858
-18.705673 41.302017 -402.39865
-21.100098 41.091007 -402.14581
-20.792362 43.375023 -402.18442
-19.299271 42.758141 -402.29825
93.300278 -0.60173893 -427.26993
94.77269 -0.78509045 -427.50882
93.977478 1.0185373 -427.3291
95.474113 0.81841958 -427.55231
93.968605 -10.469974 -415.76736
95.387741 -11.078465 -415.8967
94.818626 -9.1657047 -415.7934
96.276108 -9.8015862 -415.98508
-5.2653112 -28.206049 -420.2377
25.146179 -64.003891 -411.5318
1.3324521 -8.2135525 -406.6604
1.6434658 -5.9430561 -406.64352
2.2293894 -7.3709373 -406.74936
39.514057 -24.212683 -411.68753
40.159184 -25.795872 -411.89142
41.687916 -23.43574 -411.87286
42.228245 -24.826075 -412.05869
40.724724 -27.228354 -412.00107
42.149487 -27.677202 -412.16754
38.06628 -23.630484 -411.37759
-47.85535 10.691636 -413.92032
-46.399223 10.313838 -414.1051
0.44512117 51.671432 -402.8923
2.7645802 52.141151 -403.33887
-28.229013 -35.031071 -419.11017
-26.989164 -35.007328 -419.21033
-27.616009 -33.499489 -419.146
-16.222414 -42.142117 -420.5639
-17.678339 -41.693893 -420.35187
-16.289892 -38.766804 -420.4118
-15.675356 -40.188995 -420.62723
-44.202236 -57.715824 -404.33685
-43.666908 -55.968765 -404.38205
-42.893543 -54.629688 -404.46292
-42.189571 -56.31863 -404.5383
-40.716454 -56.687836 -404.63287
-41.418629 -54.990509 -404.59006
57.419552 -61.128803 -424.69806
57.946804 -62.356358 -424.52527
90.390022 9.9416742 -426.42908
88.158577 8.9773979 -426.18387
88.949966 10.350088 -426.21591
89.681068 8.5530357 -426.37286
39.362549 -57.285118 -412.03244
41.380871 -56.308418 -412.86096
39.900936 -55.686512 -412.58917
-8.7801113 -16.490555 -419.80264
0.99969029 29.188774 -405.32278
0.40692937 30.644838 -405.21021
60.371861 -62.157879 -424.69705
59.790939 -60.739304 -424.854
4.7743983 40.995651 -404.08832
4.7439046 40.996986 -404.37723
4.7019386 41.007374 -404.60489
82.165306 38.014835 -412.37534
-20.670649 3.2922003 -403.26428
-18.574846 1.1975907 -403.5531
-19.141062 2.6866252 -403.37759
-18.852783 4.9538541 -403.48785
-17.32085 4.3444529 -403.55881
-16.733696 2.886678 -403.67236
27.539797 42.623974 -406.86337
29.16362 47.846485 -406.78326
29.745209 46.36832 -406.83771
27.150404 46.664379 -406.65857
27.751528 45.191952 -406.7233
27.655521 48.472595 -406.66711
23.721966 42.841255 -406.59012
23.933804 45.393246 -406.56528
25.431023 44.756485 -406.70624
26.027439 43.284405 -406.86655
25.642262 47.305065 -406.65833
-29.743084 -86.664757 -406.90265
32.094814 -27.108585 -410.6441
32.087784 -27.106155 -410.71338
32.680199 -28.588177 -410.8609
107.69051 -25.719267 -418.22791
48.647289 -37.633015 -412.92694
50.128666 -38.268288 -413.17911
50.12933 -38.270916 -413.20001
30.649693 -5.1553802 -409.6015
32.824688 -4.4638901 -409.8891
33.455437 -5.9784384 -409.98099
34.005455 -7.385973 -409.99258
29.522964 -8.5133266 -409.73254
31.830624 -8.1068249 -409.91455
31.224537 -6.5840273 -409.71237
32.438503 -9.6036701 -409.99881
44.363041 -45.567074 -413.44431
42.191772 -46.22126 -413.11813
-57.228085 -25.561886 -401.29605
-56.679131 -23.790613 -401.27759
-55.615292 -26.455976 -401.53983
-54.88818 -24.830648 -401.55908
52.14558 59.818703 -419.73361
53.216221 -49.074593 -414.31808
110.41202 -48.493504 -399.54898
111.87791 -48.80481 -399.9346
109.87101 -47.091904 -399.54144
111.31963 -47.364929 -399.8205
109.29683 -45.479462 -399.54388
82.350632 -16.200155 -414.72498
84.570343 -15.480623 -414.82208
83.345688 -12.478546 -414.64426
83.977539 -14.003462 -414.72385
79.679352 -12.747536 -414.4584
81.161598 -13.224438 -414.55991
81.685593 -14.637981 -414.61304
81.892563 -11.900105 -414.54691
79.808746 -16.131077 -414.60468
79.162254 -14.58371 -414.50278
82.348969 -16.198843 -414.75699
32.980957 -35.109543 -410.74362
91.027275 14.97104 -426.48456
33.609669 -46.406998 -412.22946
12.331329 -23.258266 -408.70981
12.659839 -21.001335 -408.61584
13.826891 -23.892977 -408.93839
14.15412 -21.670422 -408.88568
15.338765 -24.598011 -409.12781
12.659052 -21.001139 -408.62149
77.629066 -35.738667 -416.05057
-31.148247 -21.378462 -418.12762
26.242771 -18.626917 -409.49188
27.673609 -19.205133 -409.80386
66.56234 -36.092857 -415.64117
67.637131 -35.686596 -415.6955
25.858601 14.99003 -381.31006
-19.759953 -39.760975 -420.207
-19.163307 -41.30624 -420.18756
-18.296124 -40.169865 -420.29797
-17.740499 -38.325096 -420.18427
52.26033 56.18409 -419.85599
52.82008 54.934452 -420.10815
101.41143 -13.233701 -416.59406
103.01923 -13.908922 -416.73996
96.779526 -23.990608 -416.46579
95.490013 -23.880444 -416.18588
97.316277 -25.14501 -417.04663
63.014812 45.64286 -421.55789
63.654999 47.256256 -421.53131
64.328842 48.884571 -421.55899
62.875038 49.280243 -421.35986
62.131905 47.89933 -421.31497
60.616421 48.307747 -421.17767
103.44769 -28.250284 -417.24347
102.99596 -26.782785 -417.57581
-30.308632 -20.218737 -418.2345
-29.257183 -19.697048 -418.32864
-28.74645 -20.918924 -418.36304
-27.959578 -19.457468 -418.40918
-4.6914458 -17.225826 -420.62463
-3.853447 -16.162144 -420.66351
0.17215121 -54.421719 -408.01309
54.334011 -53.537884 -424.37549
54.666138 -54.356571 -424.49185
99.890434 -12.584332 -416.44986
98.34742 -11.927646 -416.25388
96.146591 -12.848147 -415.93655
96.905075 -11.516365 -416.04785
99.128769 -13.911942 -416.38907
97.73082 -13.30798 -416.18646
49.916889 -58.225044 -424.07059
-32.744389 -27.413492 -407.0065
54.813679 14.924652 -410.8613
56.73769 16.34741 -410.92712
54.259068 16.353783 -410.63107
53.636227 17.871166 -410.43457
56.145702 17.82476 -410.67468
57.466484 30.120163 -410.01016
58.050167 28.649824 -410.1723
57.894184 32.182972 -409.92557
59.395603 31.549339 -410.05618
60.012543 30.059479 -410.1875
89.251366 -3.5288951 -426.91095
89.758804 -4.9829283 -427.18738
90.813553 -4.1877804 -427.11884
89.967796 -2.1363885 -426.87436
27.870161 28.411055 -374.30182
-57.179428 -35.281536 -401.68738
-56.768021 -33.317684 -401.68695
-55.262646 -33.627666 -401.89169
-54.636467 -35.03569 -401.99542
-57.721764 -30.894323 -401.40109
-56.250305 -31.234129 -401.65543
-55.564709 -29.675154 -401.59506
-54.66386 -32.160351 -401.84439
-54.081398 -30.36569 -401.78568
34.058544 -40.934032 -410.81042
35.497395 -41.502735 -411.1022
-13.435671 43.535664 -403.06
-15.507383 45.604298 -402.67822
-14.926691 44.15255 -402.87793
-14.762112 46.925774 -402.46948
-13.315306 46.300148 -402.91257
-12.574213 47.604382 -402.68234
29.153864 -64.845451 -412.31253
25.689243 -11.081635 -408.93591
27.460537 -9.3860378 -409.09216
28.069847 -10.9079 -409.26633
25.100855 -9.6182899 -408.78311
75.814629 -3.0908725 -413.54071
77.276321 -3.5393131 -413.6817
78.74205 -4.1299038 -413.90845
76.144661 -0.775213 -413.39618
77.677879 -1.4398873 -413.59708
26.39134 -61.080116 -411.87903
25.732712 -59.474537 -411.8161
78.964554 48.352116 -423.6669
77.488029 48.738655 -423.31335
6.8932896 -58.625256 -409.42282
8.2726297 -59.065815 -409.4787
26.090878 3.116524 -408.71136
26.697329 1.6148888 -408.86682
23.951956 2.4090109 -408.2421
24.481543 0.99120903 -408.57837
-51.96619 -16.113531 -401.34866
-51.349426 -17.526142 -401.50925
-49.867294 -17.859152 -401.64999
-49.986553 -14.381237 -401.42542
-49.400318 -15.825996 -401.55743
-52.496029 -14.614977 -401.21384
-50.622463 -12.981859 -401.28723
-64.026077 7.2615519 -399.22583
-63.368198 5.5667429 -399.33472
-63.602375 9.2822294 -399.24283
-61.939533 5.20574 -399.62155
-62.15781 8.9244385 -399.4433
-61.539173 7.2135477 -399.59381
-62.84708 10.595598 -399.23087
-61.381557 10.248637 -399.42255
-60.64024 8.6020555 -399.59445
5.4880004 -67.487328 -409.52698
4.9060354 -66.103004 -409.36484
5.4250836 -64.2967 -409.39813
6.8235941 -64.852074 -409.60687
-31.110744 41.199562 -401.07407
-30.487957 39.746891 -401.09814
-28.95466 39.133751 -401.2103
47.19434 -46.350712 -413.40854
49.174782 -48.206909 -413.59598
48.643658 -46.813667 -413.45743
86.748703 20.469105 -413.85086
71.311241 26.909019 -411.09213
72.749557 26.513931 -411.35123
73.486176 27.845112 -411.39444
71.945908 28.484192 -411.10855
74.944801 27.446262 -411.66116
71.36602 29.962425 -411.0354
75.213371 29.774317 -411.51306
73.680977 30.407562 -411.29544
41.18803 -49.75087 -412.66257
43.396645 -49.122387 -412.91882
-4.1344271 16.906345 -417.39478
100.53735 1.922487 -430.77216
19.55163 -68.398361 -410.74472
-27.181984 32.259987 -415.18918
-26.308067 33.365963 -415.25671
-27.728876 33.729618 -414.83124
-24.894033 32.970203 -415.37781
-25.452173 34.449131 -415.06454
-56.008152 -45.052307 -402.33478
-54.45134 -45.275818 -402.59723
-53.926704 -43.557049 -402.58075
-53.019016 -45.70517 -402.75803
-52.451176 -43.920338 -402.73129
-51.568443 -46.109055 -402.86542
-55.378551 -43.173271 -402.37515
-53.264034 -42.019947 -402.60413
-51.658081 -42.56995 -402.8064
-50.951965 -44.245014 -402.91821
16.832136 17.046288 -406.70135
-17.395523 36.486103 -416.45966
-45.424305 -64.321022 -404.44354
-43.902546 -65.026352 -404.61896
-43.188156 -63.373081 -404.70026
-43.779751 -61.920124 -404.54483
52.196918 -57.587498 -424.16623
52.829388 -59.13382 -424.13516
53.532475 62.815914 -419.85681
54.172634 64.436661 -419.85016
55.643272 64.047653 -420.02081
79.918846 -50.680927 -416.15219
79.22715 -48.947861 -416.15231
81.334763 -51.163239 -416.22971
99.331802 -44.882992 -398.67383
98.609489 -43.017464 -398.77783
-3.2804542 -27.026878 -421.13748
37.77087 35.654972 -408.42868
39.70158 37.058796 -408.31763
40.283928 35.596088 -408.52005
42.312332 36.764847 -408.56097
41.72097 38.237934 -408.42477
38.356026 34.163883 -408.6163
39.881279 33.526825 -408.54581
41.11903 39.71423 -408.31113
37.18964 37.12859 -408.1561
39.111248 38.531956 -408.17023
-33.143532 -87.939789 -406.57794
-57.200481 15.88497 -399.52866
-55.745056 15.529176 -399.6918
-57.744816 17.341377 -399.43536
13.548053 -14.111605 -408.68869
11.651326 -15.493837 -408.41721
13.064926 -15.943926 -408.66629
13.630752 -17.369682 -408.78427
-7.1586514 -75.936409 -408.58755
-5.7151537 -76.381157 -408.73456
-4.8857169 -75.24894 -408.8436
61.802818 61.748257 -421.02756
62.408718 60.523815 -421.50818
60.831757 60.867805 -420.84402
-16.926504 -67.604622 -407.5015
-16.326986 -69.052017 -407.63989
-14.800135 -69.689926 -407.8902
58.360641 -60.329334 -424.78296
56.900967 -59.860081 -424.64587
57.732899 -58.790642 -424.71762
57.078732 -57.209431 -424.68277
85.817017 19.164454 -413.71823
82.887459 20.183567 -413.04633
84.408028 19.549982 -413.2771
85.301788 20.634481 -413.44012
14.965032 -14.597088 -408.87808
15.545035 -15.996931 -409.00345
17.552458 -14.810827 -409.07925
15.351485 -12.466374 -408.87988
16.856541 -13.190323 -408.99127
14.205895 -55.407482 -410.39856
13.508335 -56.695545 -410.16718
14.91282 -57.161892 -410.2305
12.997109 -58.483658 -410.10583
-28.590849 -18.041622 -418.29471
-29.072781 -16.663841 -418.00262
-27.717644 -16.901758 -418.24838
6.9058461 41.681328 -404.6636
7.4822092 40.224648 -404.90103
25.123426 -51.938892 -411.70773
24.628031 -50.836143 -411.94516
25.517265 -50.001213 -412.10141
-45.392963 27.339386 -413.1702
-43.992889 26.95455 -413.54614
-40.609646 -47.425209 -404.2757
-40.019413 -48.885231 -404.40109
-38.555344 -49.242764 -404.56201
-37.939575 -50.655834 -404.66614
-36.468353 -51.006638 -404.82129
-34.692856 -49.150871 -404.95218
-38.392998 -46.482586 -404.4498
-37.752243 -47.83783 -404.61786
-36.239594 -48.526005 -404.78006
-36.253742 -45.248394 -404.55872
-35.682941 -46.735626 -404.72992
20.98527 12.808341 -407.59232
-6.7147989 -31.182878 -420.62952
-6.1577291 -32.591255 -421.07687
-4.7177978 -33.071407 -421.25882
-4.2740316 -30.91852 -421.19409
-3.2589154 -33.393204 -421.4454
-2.832531 -31.337027 -421.40909
72.617256 44.637592 -422.74426
71.139465 44.77137 -422.51547
71.645012 46.637554 -422.54056
72.631248 47.77705 -422.59494
73.276382 46.260975 -422.76486
14.695297 19.143023 -406.70657
13.959444 39.48188 -406.32092
11.795723 38.593525 -405.69467
82.881798 -17.608839 -414.82245
84.005447 -20.38065 -414.97397
84.317451 -18.039392 -414.92236
85.849579 -18.707193 -415.10516
82.467941 -19.70046 -414.90634
86.492821 -20.403858 -415.20026
42.783695 -19.990961 -411.68161
44.404671 -17.89332 -411.77817
44.972496 -19.310905 -411.85422
42.897411 -17.218531 -411.61795
-49.813587 22.087049 -413.09259
31.361427 -55.078465 -412.23563
33.360909 -53.935505 -412.4462
31.970375 -56.585484 -412.33221
33.955101 -55.406075 -412.56723
12.462359 -72.362289 -410.25735
-1.7201394 39.011974 -404.43109
-3.223496 39.646183 -404.40054
39.573963 56.062992 -407.32895
41.279297 57.973061 -407.34271
41.059402 55.421902 -407.44925
38.972961 57.525768 -407.14377
42.810181 57.354446 -407.4736
43.435101 58.928257 -407.44461
40.693356 59.433121 -407.07068
54.011631 -61.911747 -424.01544
-36.660183 -40.977413 -404.31009
-36.01231 -39.453148 -404.26306
-35.163105 -41.689682 -404.53802
-35.363056 -37.899754 -404.26312
-34.483597 -40.058086 -404.54279
-5.5481691 -67.525948 -408.66855
-4.7497792 -69.417763 -408.8754
-2.9072371 -67.846031 -409.00482
-2.3136582 -69.353699 -409.12512
-0.96043622 -66.512825 -409.09677
-3.5039701 -66.377655 -408.87921
75.868912 -40.641758 -415.83813
76.284363 -38.579651 -415.68631
77.357903 -41.263393 -415.93472
77.749672 -39.168919 -415.80862
22.679218 -6.1070614 -407.16946
12.989395 -6.5953045 -408.24475
15.182071 -5.9028816 -408.36569
13.710384 -5.2371311 -408.07468
75.497459 -36.631649 -415.79224
74.022697 -36.00528 -415.93671
96.274742 -1.4378059 -427.72009
96.918709 0.19870257 -427.8522
29.080023 60.452923 -405.80435
25.236992 57.606514 -405.91
25.818253 56.155804 -406.07877
26.875076 59.751484 -405.64349
27.451366 58.309845 -406.06766
28.026623 56.851204 -406.23578
24.671185 59.044144 -405.44464
103.68368 -52.918221 -399.19519
102.24066 -52.285915 -399.12509
37.823734 -7.7154322 -410.92459
38.516243 -6.3404999 -410.76611
36.389744 -7.2436781 -410.65857
35.268677 -4.3533058 -410.21558
35.813473 -5.7697353 -410.38388
37.337769 -3.3935955 -410.36682
37.924347 -4.8571415 -410.5437
-41.764812 -63.84071 -404.83484
-41.144203 -65.255707 -404.92715
-41.086555 -62.270794 -404.84534
-39.676609 -65.649406 -405.01495
-39.564827 -62.536091 -405.03845
-39.001526 -64.059372 -405.10913
0.0022759438 -74.923309 -409.35025
1.6250076 -75.812469 -409.39774
-26.057568 -79.873482 -407.05072
-24.596693 -80.252808 -407.18164
-26.802776 -78.268608 -406.99316
-25.250175 -78.421364 -407.11023
17.42482 15.58128 -406.7897
-45.748547 25.014645 -413.25891
-44.426929 24.860987 -413.50793
-48.481449 -47.375404 -403.38782
-47.013744 -47.742603 -403.55029
-49.996841 -46.687698 -403.19339
-49.49654 -44.624928 -403.09869
-48.732304 -43.315029 -403.13281
-47.958965 -45.271683 -403.29153
-47.269379 -43.684826 -403.29538
-46.405865 -45.89502 -403.49768
-45.640526 -44.592617 -403.47449
-44.725399 -46.717773 -403.68134
-6.3375268 31.404791 -416.61414
53.126064 60.707848 -419.94989
54.37859 60.5168 -420.07336
55.052582 62.152508 -419.99554
74.1399 4.1967888 -412.88492
77.064774 3.170706 -413.02359
74.86161 2.4427781 -413.03394
76.391159 1.7711416 -413.17502
74.962959 36.891075 -411.35507
74.336937 35.30912 -411.23193
76.375359 36.497791 -411.52969
75.778854 34.918564 -411.46286
86.272133 24.789879 -413.46509
-53.15237 -54.968422 -402.86783
-52.226982 -57.473724 -403.11908
-51.671856 -55.741425 -403.06625
