ply
format ascii 1.0
comment PCL generated
element vertex 1517
property float x
property float y
property float z
element camera 0
property float view_px
property float view_py
property float view_pz
property float x_axisx
property float x_axisy
property float x_axisz
property float y_axisx
property float y_axisy
property float y_axisz
property float z_axisx
property float z_axisy
property float z_axisz
property float focal
property float scalex
property float scaley
property float centerx
property float centery
property int viewportx
property int viewporty
property float k1
property float k2
end_header
84.592918 -21.862858 -415.28534
86.044655 -22.305309 -415.38971
86.660622 -23.954187 -415.4751
60.366821 -62.152756 -424.76999
59.785858 -60.734043 -424.9274
69.273201 -58.437481 -415.62842
70.054047 -57.054482 -415.67838
46.401192 -41.399578 -413.6069
48.922123 -55.666565 -423.57324
50.443275 53.705662 -409.03052
98.115097 -54.47216 -398.43173
46.019772 -0.47179478 -411.65878
107.11581 -22.541269 -418.4118
105.13043 -16.092302 -417.48395
96.968643 6.4829993 -427.8082
97.898178 8.5682268 -431.17441
71.057556 -0.66499901 -413.37881
88.324699 -43.543182 -416.6174
87.818291 -42.420856 -416.61655
66.158745 -53.518635 -415.59717
73.987358 -4.7876296 -413.76923
75.475441 -5.4012189 -413.9129
76.983757 -6.0441623 -413.95813
75.798203 -3.0765297 -413.69589
77.259666 -3.5268154 -413.83627
95.031952 -46.319996 -398.69745
84.646477 -56.477844 -416.53433
74.780144 -59.466988 -415.87442
58.490887 8.8581886 -412.22241
88.665688 -25.811592 -415.67032
90.060928 -26.171377 -415.95633
49.120007 67.37999 -419.20767
49.710728 65.879684 -419.44302
51.401424 68.090347 -419.14661
68.015366 35.022778 -410.61398
68.650551 33.56945 -410.70081
69.380905 34.901333 -410.80792
26.428362 28.986221 -374.34857
95.165733 -26.089027 -416.91177
87.325203 17.576532 -425.40198
84.432404 -4.660511 -426.17499
96.22506 8.8042641 -427.74307
76.881653 56.222996 -423.48819
104.52663 -10.652934 -419.65305
86.699219 -52.114803 -416.68237
88.14904 -52.6003 -416.81543
65.707283 -57.9319 -416.00806
61.219444 8.2815113 -412.46136
87.144806 -46.963291 -416.5849
38.839756 17.513063 -409.31958
35.950886 18.543472 -409.11459
36.54953 17.068586 -409.13388
37.665401 20.447475 -409.20206
38.279488 18.958841 -409.28116
40.274414 17.083452 -409.46762
65.805511 -15.587009 -413.96936
66.310516 -16.836496 -414.04306
65.409286 -14.607803 -414.06866
81.910545 -58.714096 -415.97986
50.09346 -38.230488 -413.41299
50.695827 -39.816662 -413.93567
25.116123 8.6239185 -408.15787
25.456812 10.894012 -408.12402
26.939894 10.251223 -408.35019
21.454861 8.5543928 -407.75833
21.551182 11.374948 -407.61926
23.053841 10.720552 -407.79205
23.644451 9.2528114 -407.9245
50.977512 -60.841465 -424.16602
52.476013 -61.382084 -424.20859
26.757423 30.828276 -374.80945
47.688766 7.8109107 -410.79434
47.029835 9.5017366 -410.58655
50.929214 59.368889 -418.82898
48.419121 -15.550677 -412.24265
48.983341 -13.977423 -412.34784
87.570786 27.719412 -413.84744
101.42039 -2.6709583 -419.96902
110.94926 -26.746304 -420.99582
70.562561 -2.4730136 -413.61862
87.183205 -40.849316 -416.52051
88.713104 -41.529839 -416.56589
64.276093 13.131282 -411.81998
62.787354 13.745849 -411.55792
64.891167 11.618476 -412.04465
66.593826 13.582081 -411.90781
64.514282 15.674449 -411.48193
66.031181 15.026999 -411.69357
71.559586 -1.8796561 -413.35754
72.857323 -1.9641349 -413.35205
63.808067 -38.53112 -415.63904
65.199776 -38.904865 -415.52597
64.479301 -18.487164 -413.97446
65.182823 -20.227898 -414.10071
75.704994 -58.721027 -416.11789
35.000908 -43.554638 -411.7178
69.534668 -28.023464 -414.72348
71.034988 -28.536524 -414.85556
70.864441 -25.126709 -414.76703
71.519363 -26.678614 -414.84509
76.641739 39.093651 -411.95959
77.178314 37.866989 -411.69278
77.981071 38.948673 -411.82181
105.43523 -26.612562 -417.8349
107.10954 -27.48827 -417.82077
71.018074 -31.707909 -415.06699
70.450745 -30.269697 -414.80975
49.796661 52.372082 -408.60486
79.255829 44.160946 -423.77307
111.48428 -35.612236 -418.17392
78.348801 53.01086 -423.61774
112.7683 -35.846958 -418.52921
72.550262 71.726852 -425.31906
33.810944 -37.571781 -411.49036
34.405228 -39.040009 -411.56662
35.90477 -39.69706 -411.73123
35.883972 -36.669598 -411.88394
36.549015 -38.339619 -411.93332
38.000309 -38.822186 -412.10855
38.192245 -36.2388 -412.09076
45.87645 -64.386322 -413.99963
62.034 9.3537121 -412.09677
62.935661 10.248533 -412.05817
73.764862 -7.3541994 -413.85641
74.349922 -8.829689 -413.93384
76.230415 -7.3431025 -413.97296
88.668915 -32.112564 -416.34796
90.822243 -31.206024 -416.57983
96.283829 -52.273865 -399.01282
62.997852 -14.84998 -414.13776
52.864716 -39.048363 -414.1304
54.244896 51.420082 -420.54889
54.998314 49.412239 -420.85263
55.792889 50.777466 -420.81195
56.462128 52.40152 -420.79556
57.257538 50.378254 -420.9245
53.570793 52.915466 -420.37756
72.069084 -52.847649 -415.80289
73.543495 -53.464245 -415.84177
103.81132 -38.006172 -399.24625
98.921738 -1.7188094 -428.19717
98.631996 -0.49216449 -428.12595
107.68022 -25.714508 -418.29407
50.501553 -14.918851 -412.62714
50.994564 -15.864843 -412.57642
31.899298 26.381546 -375.49707
108.01365 -23.985537 -418.89001
102.6586 -5.9169359 -419.7489
65.533417 -55.247353 -416.00339
21.383995 27.194983 -374.4812
68.044693 0.5711028 -414.00504
71.313484 -7.5194507 -413.76703
72.330055 -6.9262552 -413.7139
70.576027 -8.8638983 -413.84933
70.992584 -9.83284 -413.82578
71.808937 -8.7691984 -413.79639
38.448898 -0.0075226724 -410.32388
39.033241 -1.4718342 -410.47064
39.631592 -2.9491897 -410.54926
40.662621 0.66000676 -410.41864
41.262794 -0.82887757 -410.57507
41.840351 -2.2816217 -410.71249
80.51944 -58.634655 -416.134
26.5002 23.102455 -374.66025
29.13895 47.858948 -407.02216
29.720127 46.380665 -407.07617
31.219128 45.755581 -407.25079
31.741623 47.564716 -407.23291
32.730274 45.11087 -407.43491
33.239601 46.926979 -407.37732
34.733837 46.292694 -407.55206
34.850971 49.083683 -407.37857
35.450161 47.616375 -407.52197
25.879662 27.531464 -374.2106
97.704033 -52.858891 -398.79236
50.422813 7.0722508 -411.49728
53.619034 56.317471 -420.37335
55.707348 57.28194 -420.40411
54.195251 57.936001 -420.3013
82.152412 38.022079 -412.45169
100.75001 -54.545322 -398.93616
101.57423 -53.567005 -399.05057
102.16685 -54.967762 -398.7948
98.989326 1.102839 -428.35611
104.22247 -13.320438 -417.34656
103.00718 -13.901431 -416.81268
109.87684 -23.829298 -421.87994
95.386642 -50.338181 -399.16068
69.216774 0.62204772 -413.55624
27.564123 -27.958273 -409.45676
25.184048 -22.00461 -408.98563
25.75078 -23.449867 -409.10873
26.376822 -25.000122 -409.22769
26.942112 -26.422098 -409.34024
27.805845 -22.399639 -409.27158
28.450874 -24.024509 -409.38782
29.057766 -25.529392 -409.54001
61.051048 -22.327351 -413.7536
61.721142 -24.015169 -413.90363
60.461533 -20.842407 -413.63043
63.094734 -21.308342 -413.85089
63.80587 -23.067482 -414.07278
85.126587 -57.726353 -416.12598
65.231987 -32.736301 -414.55072
63.762489 -32.167622 -414.46585
65.704483 -30.841354 -414.45212
75.07943 -20.017115 -414.7601
75.810577 -18.706215 -414.76904
76.533356 -20.472731 -414.87906
77.721008 -17.248283 -414.70193
78.353493 -18.78883 -414.87131
75.171799 -17.160011 -414.60416
77.165314 -15.811398 -414.59796
71.987167 -43.437225 -415.69968
73.432663 -43.893753 -415.89343
73.873535 -41.868015 -415.88693
75.370934 -42.510265 -416.01276
72.436859 -41.415642 -415.75391
107.07311 -33.623352 -417.74344
107.44138 -31.525763 -417.78275
46.444614 10.970016 -410.41788
47.740051 13.895329 -410.39008
48.344967 12.407546 -410.44199
48.919971 10.958054 -410.57355
70.582031 -36.77034 -415.93036
70.156052 -35.780563 -416.09848
44.877113 -64.950821 -413.38516
84.436707 35.126198 -413.02536
83.039848 45.426769 -427.23532
110.41971 -25.501123 -420.9173
44.573292 -61.131561 -413.07919
69.968102 2.1114347 -413.14771
52.04364 6.2460456 -412.55054
85.002022 30.850876 -413.11145
68.245155 -58.696369 -415.51373
81.745972 -30.37105 -416.33685
100.88582 -34.476311 -417.1705
100.48726 -33.078785 -417.02704
101.91198 -33.491135 -417.24768
17.322279 33.374111 -379.45953
86.081642 -56.746555 -416.54376
39.616245 -42.870792 -412.6188
61.233612 62.996601 -420.82025
61.79266 61.755436 -421.12332
62.127155 64.129601 -420.95132
62.551647 62.894306 -421.29568
86.713646 29.682112 -413.64154
94.872864 12.118439 -427.43423
105.20595 -12.407199 -419.69211
71.406715 -4.7366066 -413.63425
72.555222 -4.3726835 -413.61282
71.805664 -11.848222 -414.09583
72.381317 -10.184825 -413.90988
73.829773 -10.65815 -414.0358
81.894348 -33.882763 -416.21399
23.758104 29.904032 -374.48813
82.047287 -28.014318 -415.4968
82.848122 -26.887951 -415.41803
59.459614 67.548492 -420.51218
60.908958 67.148949 -420.64444
53.852436 32.881313 -409.73294
55.384686 32.232162 -409.83276
55.962521 30.756868 -409.99435
55.788998 34.309368 -409.8129
57.454086 30.129314 -410.10724
57.254463 33.663963 -409.95978
57.881771 32.191601 -410.02017
54.280739 34.947998 -409.67206
56.401989 35.887238 -409.85336
97.330063 -34.777691 -416.74365
98.275742 -34.189777 -416.82932
35.849018 -45.856426 -412.65787
36.802792 -45.120895 -412.62988
39.553593 -45.891132 -413.14569
38.160408 -45.494297 -413.00732
38.984844 -44.454121 -413.00098
27.828785 28.414835 -374.48087
104.81935 -15.090843 -417.51538
70.029724 73.719185 -422.01657
107.91717 -19.199783 -420.33804
96.20784 -49.235199 -398.91846
85.884033 -31.326677 -416.76654
100.56578 -38.755173 -399.23343
85.416298 -30.123983 -416.77469
86.320122 -29.256613 -416.53247
56.252087 46.384136 -421.07352
56.868778 44.866337 -421.23795
57.46381 43.359001 -421.34
58.444244 47.345158 -421.11182
55.668007 47.898338 -420.91614
57.824162 48.855778 -421.00977
74.951584 36.89888 -411.43246
75.82502 38.010426 -411.64389
76.363976 36.505749 -411.60614
42.849972 -41.676815 -412.73718
43.10466 -39.227932 -412.56369
44.575294 -43.05135 -413.70129
45.623528 -42.561611 -413.79285
83.628014 37.638332 -412.92511
48.10186 -8.864748 -414.6387
96.579391 11.655272 -430.25009
86.016731 -37.916401 -416.30356
87.489647 -38.501598 -416.35089
91.393402 -35.700829 -416.30386
92.866417 -36.33054 -416.52734
92.0084 -34.109741 -416.22339
66.59333 -39.302238 -415.35059
55.209087 -47.880329 -414.42334
56.080936 -46.973572 -414.44867
58.670719 40.333115 -421.57642
59.293522 38.815033 -421.62018
60.791355 38.170391 -421.84512
60.453552 42.310402 -421.67908
60.988369 40.79258 -421.82114
62.266396 37.774734 -422.07578
58.085911 41.842533 -421.43198
62.652504 40.142586 -421.92926
64.126968 39.739773 -422.02325
64.64978 38.239967 -422.14139
70.016861 -38.525486 -415.47028
70.927299 -40.904636 -415.51694
71.518425 -39.155693 -415.47586
102.17095 -24.540445 -417.75711
102.63936 -22.777388 -417.2753
46.942238 -51.920383 -413.72241
46.949013 53.131901 -408.13574
48.499653 52.511471 -408.34506
48.977345 51.277889 -408.45367
101.10115 -36.787796 -417.58847
48.451523 -9.8201818 -413.85208
88.228752 30.133085 -416.70068
71.821411 -5.7129784 -413.67007
70.423996 -14.6937 -414.20984
68.550392 -13.068368 -413.99432
69.869133 -13.263369 -414.06598
84.31498 -27.445004 -415.65158
49.861286 -34.54874 -413.24298
50.409222 -35.953861 -413.40524
50.333321 -32.681736 -413.24692
51.795174 -33.261139 -413.4324
52.440186 -34.842522 -413.55627
93.929581 -29.446484 -416.83716
93.535683 -28.453815 -417.01685
106.13389 -21.842007 -417.81036
67.151291 71.143211 -421.38019
52.13261 59.824745 -419.83649
46.010715 -6.5949736 -412.14856
100.84621 -5.922574 -416.75378
99.586952 -5.4393358 -416.46872
94.433945 17.05715 -429.39627
61.626049 -55.885708 -424.93829
81.15609 -35.178307 -416.03024
27.874638 22.53437 -374.90106
80.081444 27.123438 -412.37927
80.710098 28.705612 -412.44055
81.603065 26.725063 -412.66241
51.819542 -42.607738 -414.48584
53.222176 -42.984501 -414.39676
50.958633 9.007966 -411.11182
49.534821 9.4424009 -410.88068
51.556568 10.610113 -410.9451
68.699547 71.065079 -421.6008
7.6011615 27.650705 -405.46426
9.0971556 27.009171 -405.73895
45.853271 -58.146999 -414.80728
110.43596 -29.331017 -418.37579
81.209251 50.023994 -426.83563
65.086647 -61.258099 -424.57486
94.668312 -42.25845 -398.8085
40.170647 -44.366207 -413.23505
63.633682 27.290703 -410.62164
65.119926 26.671764 -410.81082
64.946205 30.221159 -410.57217
67.766975 26.366766 -410.97809
65.633804 28.499109 -410.70853
67.157211 27.854109 -410.83597
67.109138 31.150019 -410.63315
67.700874 29.672817 -410.79614
105.76675 -30.395329 -417.5889
107.74133 -28.966566 -417.80225
33.135952 -45.059772 -411.72632
33.593224 -46.390774 -412.37497
34.474094 -45.428528 -412.19647
84.386353 29.263899 -413.03635
81.668594 44.122883 -424.2645
93.998695 13.857683 -427.28073
113.35239 -32.813408 -421.6088
75.840691 -9.4445858 -413.93936
76.494987 -11.01345 -414.18573
77.772789 -8.0200939 -413.95438
78.486412 -9.7712011 -414.14011
79.664062 -34.565475 -416.2272
82.576302 -29.318119 -416.03171
20.645466 50.436127 -406.15109
21.240044 48.969971 -406.28735
22.736027 48.339657 -406.47598
22.36091 52.363152 -406.30011
22.949413 50.88789 -406.40964
24.44487 50.252972 -406.56525
18.942677 48.525379 -406.08392
20.071987 51.907562 -405.99707
78.976387 -45.287949 -416.22946
79.57737 -46.780159 -416.2496
81.062691 -47.389141 -416.29285
79.503113 -43.489853 -416.23032
48.580536 -49.801594 -413.72546
89.468872 15.398138 -426.25861
43.201706 -11.861915 -411.62985
45.217911 -10.694031 -411.76752
93.093849 16.152731 -427.28268
112.63645 -31.028584 -421.30197
71.683105 0.91606784 -413.23392
72.481674 2.072912 -413.15552
73.089294 0.55012608 -413.22049
67.7341 -57.550533 -415.67197
72.971504 -33.482147 -416.10675
74.216583 -33.449276 -416.2572
75.6558 -33.907036 -416.43051
82.33432 -16.186256 -414.9364
82.868141 -17.596783 -414.98438
83.992088 -20.367922 -415.13501
84.302628 -18.027697 -415.08368
84.546097 -15.471245 -415.0318
85.834053 -18.695562 -415.26566
86.478806 -20.39266 -415.34485
86.111198 -16.332884 -415.13083
102.22453 -52.27689 -399.19662
101.45265 -50.337391 -399.18497
104.37891 -51.630165 -399.35281
102.29874 -49.041031 -399.31464
103.74762 -49.813446 -399.36951
105.89899 -49.154831 -399.3898
28.299311 -14.678376 -409.92252
29.753767 -15.280468 -410.23178
31.196667 -15.779046 -410.37817
28.6035 -12.384224 -409.9252
30.072533 -12.976806 -410.08005
32.671246 -16.362471 -410.51379
32.985802 -14.081656 -410.4548
34.491291 -14.755204 -410.67282
30.692579 -11.457752 -410.13214
31.510534 -13.469467 -410.26761
32.180702 -12.097384 -410.32184
43.952499 -50.520912 -413.05713
45.372532 -50.994701 -413.27435
43.385891 -49.115612 -413.00809
45.568893 -48.438877 -413.21603
43.043541 -63.520203 -413.21082
43.449665 -64.517113 -413.22565
44.417702 -63.824116 -413.43466
70.715202 71.986458 -422.11185
100.87561 1.0927141 -431.99481
64.076729 -58.919254 -425.19693
87.678116 -45.218628 -416.58264
53.867428 -32.225155 -413.55591
54.46529 -33.718136 -413.7168
55.979229 -34.392567 -413.85141
72.305603 21.172709 -411.80905
68.438705 21.574419 -411.32825
68.526466 24.414064 -411.18219
69.169411 22.90226 -411.30667
69.244171 25.749479 -411.07779
70.626129 22.297577 -411.50702
70.721573 25.127413 -411.25345
71.379883 23.612234 -411.45325
73.053047 22.500042 -411.74789
49.92186 42.720966 -409.0451
51.431591 42.084766 -409.17093
52.128231 43.416107 -409.12543
53.644329 42.774292 -408.98123
49.320541 44.195614 -408.9176
50.015858 45.526146 -408.86545
51.559811 44.8815 -408.98212
52.237293 46.21286 -408.8298
105.50523 -23.275934 -418.07779
81.592651 6.0473628 -425.42816
29.25816 27.55191 -374.66095
71.384804 74.420654 -424.08966
81.769569 48.790291 -427.61243
95.621628 -47.558769 -398.79007
103.12534 -39.252354 -399.1131
101.75304 -38.872452 -399.15344
53.067772 9.9483414 -411.17618
54.426403 9.6468964 -411.43982
55.251289 10.694919 -411.36124
53.774796 11.285114 -411.1723
70.353661 -54.723675 -415.72791
71.816879 -55.261135 -415.78015
72.45356 -56.889442 -415.98334
74.198181 -55.026386 -415.9342
83.660065 -47.700756 -416.48615
85.15271 -48.219383 -416.53421
96.881653 -50.725979 -399.01633
57.208233 56.88549 -420.54422
57.952209 55.133152 -420.83405
57.742859 58.75943 -420.52713
58.651272 56.49498 -420.78549
59.288197 58.117596 -420.82135
83.795334 -3.1303544 -426.28094
84.586609 -1.7576563 -426.38498
84.530472 39.065445 -415.11194
35.111485 29.49181 -379.03687
62.036877 -56.956238 -425.10025
87.214867 -31.483257 -416.65814
86.827637 -30.512611 -416.8201
69.145821 -33.268398 -415.15085
39.429043 3.6684766 -410.27319
40.058033 2.1410766 -410.4165
41.780514 4.0230942 -410.55667
42.378773 2.5416081 -410.67511
68.515022 -37.907848 -415.64618
98.51519 -3.4571311 -429.00146
40.141933 63.940151 -406.79626
42.420666 64.416061 -406.88208
43.042809 62.956039 -407.33228
44.545654 62.331459 -407.55618
44.697742 65.08606 -407.00113
45.275585 63.652988 -407.46811
46.774498 63.023285 -407.60986
84.879372 -6.155611 -425.70035
81.516914 45.163689 -424.33469
88.918793 28.383511 -416.69196
70.444405 0.71562457 -413.3208
91.339745 -29.172564 -416.97916
92.635147 -29.300694 -416.91141
60.279751 10.584969 -411.7662
60.892845 12.175094 -411.64471
39.617844 -36.717751 -412.23401
41.109737 -37.355469 -412.39124
41.190514 -34.516766 -412.30392
41.775246 -35.97105 -412.44193
42.534122 -37.816063 -412.55634
39.704025 -33.860771 -412.09259
43.51638 -34.160011 -412.62473
44.11578 -35.644619 -412.7301
60.568012 28.605188 -410.41443
61.166985 27.121878 -410.48212
62.337769 30.511246 -410.45438
62.989319 28.800055 -410.5239
59.387878 31.552366 -410.14688
60.00029 30.068394 -410.28085
61.698219 31.997761 -410.30396
36.244259 -43.624748 -411.96429
49.332977 -60.000328 -424.17188
49.795185 -61.066223 -424.20181
50.417633 -59.460861 -424.16504
83.104439 -4.4897709 -425.94482
32.169079 28.74979 -375.97534
100.50565 1.9200851 -430.84906
90.88578 -53.240463 -416.88037
99.88369 -40.236256 -399.13361
63.329742 -37.342445 -415.5658
64.308594 -36.698505 -415.54578
64.715271 -37.714802 -415.76636
81.567459 -45.562725 -416.3291
81.023949 -44.158951 -416.28909
83.045921 -46.069729 -416.41141
81.456955 -42.118359 -416.22934
85.484596 -55.583752 -416.70312
86.495262 -54.702839 -416.76212
85.001747 -54.059677 -416.58441
70.277954 -48.408932 -415.77036
67.6744 -48.101494 -415.60736
68.132607 -46.151188 -415.51212
69.65564 -46.860432 -415.59354
79.442207 35.240414 -412.08759
80.203804 36.583672 -412.21579
44.662632 -9.4243679 -411.6485
95.971077 13.199835 -430.07162
72.262108 -0.6335572 -413.21701
69.152969 -11.519878 -413.94312
67.709717 -32.733932 -414.73642
36.56295 -13.808168 -410.93311
38.213306 -11.716716 -411.004
38.823193 -13.22517 -411.14835
39.466965 -14.882955 -411.32135
40.467663 -11.229707 -411.26724
41.084858 -12.756325 -411.44016
41.642921 -14.180344 -411.58932
56.895016 -59.855366 -424.72531
57.727219 -58.785339 -424.79691
57.073086 -57.203819 -424.76212
93.293968 -0.59558833 -427.34457
94.039223 -2.1689899 -427.41547
44.929817 2.2834835 -410.94421
94.970093 15.760732 -430.14822
70.0028 -10.402141 -413.91885
70.376068 -11.413071 -413.94098
42.579365 -59.303482 -413.13071
43.082973 -60.472961 -413.19293
50.338821 13.590372 -410.61957
50.974693 12.083302 -410.74072
49.679256 15.290426 -410.52408
51.95718 15.760205 -410.7121
52.598774 14.236671 -410.88553
53.137836 12.805665 -411.02664
72.594833 4.8934307 -412.96216
72.024864 6.3370242 -412.79315
74.125618 4.2149487 -413.08591
73.775421 8.2456427 -412.73309
74.346581 6.7916236 -412.84647
95.94133 -34.405754 -416.81787
96.808853 -33.346405 -416.77472
44.531914 -39.700283 -412.77158
45.063496 -41.099369 -413.12527
82.072472 31.881927 -412.57098
83.569084 31.490301 -412.8179
103.66492 -15.639395 -416.95013
86.390137 34.610085 -416.00589
72.033699 -3.1751914 -413.45526
74.293816 -2.4401374 -413.50534
85.439209 -36.46315 -416.18982
85.950188 -34.593212 -416.07632
45.873684 -9.3727255 -411.92853
28.955873 2.0852566 -409.21463
29.56741 0.58544797 -409.36694
30.147001 -0.87382722 -409.5173
31.348227 2.2608132 -409.54169
31.964014 0.74375796 -409.77133
30.760183 3.7362649 -409.35199
33.453465 3.1709666 -409.79837
34.036568 1.7123665 -409.92062
32.861126 4.648272 -409.6228
68.059067 -36.72514 -415.9476
68.925278 -35.831928 -416.00705
38.293701 -42.592113 -412.20462
38.885303 -41.004223 -412.17599
93.414078 12.276711 -426.93561
53.667217 -19.44927 -413.03879
53.129513 -18.017935 -412.83664
115.16723 -36.832966 -424.03134
63.368538 -60.249973 -425.26721
87.972992 -33.395622 -416.07303
58.813625 14.253396 -411.26358
59.425114 12.749804 -411.46924
61.261314 14.41083 -411.37064
51.147701 36.478268 -409.29333
51.745808 35.002319 -409.49832
51.453995 38.786842 -409.26596
52.978966 38.151379 -409.4173
53.664371 36.431339 -409.53925
55.003819 39.344528 -409.45016
55.626511 37.613186 -409.69073
51.986282 40.611427 -409.2489
53.414825 40.214188 -409.35403
91.775978 -8.0853395 -415.62933
93.537964 -6.3752623 -415.76151
91.98774 -5.7310181 -415.66653
95.240112 -7.5125093 -415.86938
94.325394 -4.8077116 -416.07431
92.199707 -4.3559561 -427.37936
92.825455 -2.923605 -427.31265
93.573975 -4.5159035 -427.60764
91.441971 -2.3519769 -427.08978
80.632217 4.5944076 -425.20624
51.267147 62.119518 -419.71692
50.57019 63.595661 -419.57867
52.079594 63.222912 -419.83417
106.75058 -16.176889 -420.12506
67.297249 8.7448254 -412.34659
66.368576 11.028524 -412.12076
67.847801 10.527499 -412.18808
69.338654 9.9216785 -412.32318
80.53479 -36.745762 -416.03494
82.076469 -37.447014 -416.14532
59.837761 -34.784782 -414.24261
42.005947 12.71007 -409.96661
42.628685 11.191057 -410.07379
44.118183 10.562764 -410.2038
44.339676 13.106534 -410.13104
45.847626 12.452591 -410.31326
43.734833 14.596129 -410.00275
46.238583 14.540157 -410.26617
100.71179 -42.335991 -398.94653
101.41299 -40.889091 -399.07425
102.29094 -43.058041 -398.95078
102.87348 -41.514328 -399.00897
50.619595 -48.716965 -413.88293
49.164326 -48.198147 -413.67776
2.548115 40.311985 -404.06226
3.4283383 38.115051 -404.23215
4.020081 36.651073 -404.34442
4.0287218 39.68095 -404.2338
4.7356815 41.005642 -404.31299
5.5128369 39.049816 -404.49625
13.214953 19.79134 -406.6225
12.602115 21.255457 -406.58722
99.09346 5.231595 -430.60471
64.576683 -60.112446 -425.03125
96.594734 -44.091148 -398.75909
82.480614 18.111248 -413.11475
84.143959 17.213314 -413.4068
65.757927 -21.696466 -414.25348
66.330048 -23.155481 -414.37442
67.806549 -23.642248 -414.52338
68.176155 -21.516073 -414.45126
69.274254 -24.246214 -414.604
69.672546 -22.144854 -414.59497
85.369728 -0.40285885 -426.44312
86.121895 0.96792811 -426.50284
86.896233 -1.0479746 -426.60907
87.66465 0.3133463 -426.64517
49.791862 -49.758774 -413.9379
111.10655 -34.12392 -418.1055
111.86427 -29.255661 -420.96033
66.544373 -54.612118 -415.7475
23.164398 28.513159 -374.29114
72.442482 -29.072073 -414.95264
72.945671 -27.245569 -414.96509
53.523224 27.510725 -410.13989
54.176048 25.808435 -410.18365
54.791862 24.320486 -410.27158
55.370205 22.850607 -410.4104
56.023186 27.468632 -410.20129
56.592808 26.010912 -410.31674
57.231663 24.501287 -410.48898
58.037949 28.658981 -410.26895
58.679008 27.145704 -410.41177
59.220692 25.714525 -410.53247
55.442085 28.936296 -410.08035
11.124277 19.116879 -405.67429
11.702396 17.658644 -405.82428
88.709389 20.338005 -425.37265
54.065144 -17.16283 -412.95367
93.094055 20.374872 -429.42776
68.561691 -56.468937 -415.71106
78.280884 -34.196659 -416.40326
77.868378 -33.201794 -416.50266
65.76207 -34.066185 -414.8092
67.074387 -34.285973 -415.17929
57.464962 20.734306 -410.73062
58.097073 19.224911 -410.94183
57.771248 23.06395 -410.64725
59.224831 22.62738 -410.75345
59.790363 21.178604 -410.88376
60.403877 19.678614 -411.04691
59.855648 24.194 -410.68063
61.328407 23.590742 -410.79633
61.934086 22.095934 -410.92523
62.521748 20.624668 -411.08752
61.740852 25.654413 -410.62424
102.98789 -26.77652 -417.63495
103.43909 -28.24399 -417.30353
105.03872 -28.861994 -417.42862
80.051216 42.722481 -423.711
51.766785 60.8475 -419.77011
107.34861 -17.711615 -420.4725
63.239998 -46.328903 -415.24359
64.173203 -48.628113 -415.29306
64.73481 -46.962242 -415.3255
66.184158 -47.475594 -415.46133
79.817848 -28.745718 -415.41617
80.54554 -27.443108 -415.30154
79.065865 -26.847168 -415.31256
47.19706 43.259945 -408.78033
42.772488 44.927181 -408.37189
43.350994 43.456589 -408.46231
42.968056 47.479912 -408.23615
44.499535 46.84724 -408.35681
45.083881 45.371315 -408.46274
45.668961 43.899666 -408.60593
47.212555 46.308422 -408.58319
47.815346 44.832935 -408.70844
98.211098 -27.392464 -417.51907
99.427414 -27.290552 -417.46268
94.093315 10.740615 -427.11731
82.325867 -2.4684899 -426.05707
113.91701 -34.304893 -421.508
24.226898 26.004799 -374.16843
25.593918 25.393255 -374.26935
91.817741 -24.164837 -415.82037
93.177994 -24.496943 -415.98734
92.489212 -22.608534 -415.84103
49.987411 17.611137 -410.25797
54.24514 16.365845 -410.74957
51.430332 17.176697 -410.4776
51.509342 20.024096 -410.28952
52.089542 18.556044 -410.45438
53.621841 17.883772 -410.55347
53.478062 21.397696 -410.25507
54.034279 19.956413 -410.41537
55.554504 19.296995 -410.61627
56.131409 17.836775 -410.79263
55.999294 21.343393 -410.4563
93.827583 -32.427059 -416.32959
94.685036 -31.374846 -416.42542
95.314499 -32.886444 -416.54849
49.075294 54.085815 -408.49396
94.097809 3.9387062 -427.31009
94.877197 5.305479 -427.3584
96.483246 4.4068589 -427.57236
95.528931 14.466614 -430.89542
97.645485 -49.673954 -398.90811
54.570969 -37.051426 -413.79312
55.403294 -36.014793 -413.72092
53.915051 -35.438744 -413.62241
67.694901 -51.204285 -415.60306
68.297531 -49.627293 -415.65906
79.33316 38.810238 -411.96262
78.939728 40.118252 -412.3526
37.869381 -56.78616 -412.52811
38.383583 -55.019768 -412.56058
39.88509 -55.678722 -412.72327
40.284576 -53.609844 -412.68274
83.459618 -5.7814126 -425.46921
109.44292 -23.274551 -420.88873
88.678284 -53.937283 -416.91058
90.066658 -54.276482 -416.93954
90.792191 -27.866001 -416.7688
92.121689 -28.035345 -416.9675
88.992691 13.502143 -426.2149
90.536613 13.335578 -426.40118
104.03676 -32.536083 -417.42853
103.30628 -30.762932 -417.24014
37.809868 -7.7061338 -411.03314
38.395065 -9.1573944 -411.10226
39.894489 -9.7895269 -411.12933
39.998814 -6.9399347 -410.98334
41.421547 -7.4220657 -411.10464
85.304703 -3.5530267 -426.49203
85.86541 -4.8241057 -426.49951
86.205238 -2.4450424 -426.60809
86.842171 -3.977675 -426.70377
87.69384 -2.8638544 -426.80191
105.67088 -13.662237 -419.6806
61.302334 -35.341934 -414.57492
32.257778 -3.029284 -409.88376
31.659126 -1.5492269 -409.77319
34.042179 -1.350191 -409.98053
34.643471 -2.8382306 -410.13364
36.737602 -1.9175708 -410.35468
33.452805 0.11338738 -409.91269
35.534519 1.0677757 -410.0188
36.151081 -0.44647145 -410.19037
76.132759 -35.103752 -416.30136
77.619293 -35.730789 -416.12845
12.032097 22.715904 -406.6579
78.608932 15.019895 -412.90921
78.957115 17.332619 -412.73007
80.119705 14.387868 -413.09674
80.500618 16.889986 -412.92084
81.927261 16.28664 -413.14627
82.605125 14.774072 -413.22
97.308037 -25.136637 -417.10312
66.812286 -27.452387 -414.4935
67.454315 -28.980799 -414.55524
67.428345 -25.877268 -414.48184
68.916252 -26.50989 -414.62637
81.326454 -51.155338 -416.30249
82.859718 -51.856052 -416.34668
84.34716 -52.489452 -416.4516
81.713844 -48.957634 -416.31506
83.162155 -49.535969 -416.42984
84.637604 -50.150043 -416.51056
52.63063 58.56813 -420.01404
53.043999 57.573914 -420.18402
76.941536 53.412769 -423.11264
93.089333 -27.371029 -416.92477
94.310875 -27.147686 -417.04611
44.980209 58.040379 -407.75369
46.750904 59.979309 -407.79077
45.227745 60.606888 -407.65149
47.356239 61.552265 -407.776
71.448578 36.096973 -411.13895
72.356583 37.243298 -411.29926
72.873314 35.701019 -411.17828
74.325401 35.317299 -411.30933
77.013222 46.59922 -423.3479
75.401634 47.248226 -423.10562
99.938065 -16.107042 -416.5397
101.45207 -16.549503 -416.65878
102.23179 -15.227195 -416.72491
100.69774 -14.577698 -416.60175
69.756264 -34.774483 -415.93481
71.085869 -34.97287 -416.12253
54.24231 -30.10997 -413.50751
55.674107 -30.564983 -413.65204
56.249443 -32.009171 -413.76028
57.604176 -29.195364 -413.77692
58.188877 -30.652277 -413.89337
56.169605 -28.734373 -413.70636
87.312775 -34.942665 -416.09894
87.873344 -36.291435 -416.23389
9.1602201 42.154858 -405.25543
9.733429 40.67688 -405.32935
11.236462 40.050232 -405.57632
11.779737 38.602978 -405.80811
11.226831 43.078564 -405.52487
11.826468 41.617031 -405.6412
80.046257 45.553352 -423.95935
61.7882 -33.443783 -414.30066
63.213192 -33.904068 -414.48761
64.626251 18.502373 -411.37384
65.201408 17.031464 -411.45825
66.680305 16.580605 -411.59564
66.534607 19.951355 -411.37018
67.184113 18.420425 -411.4982
68.130898 16.000154 -411.79907
68.669243 17.804327 -411.63843
68.970009 20.134867 -411.48309
52.824135 -59.128395 -424.21457
54.971828 -58.194138 -424.5162
48.427013 58.864262 -408.18109
48.968502 57.383724 -408.38092
91.019035 14.976879 -426.56201
75.17366 -29.559248 -415.21643
74.495453 -27.942152 -415.16275
25.602184 -11.060243 -409.4971
26.196123 -12.53324 -409.5769
27.379358 -9.3620777 -409.65363
27.99177 -10.888189 -409.82788
24.354403 -7.9025526 -409.11465
25.001865 -9.5773582 -409.34174
24.75292 -5.8419981 -409.08356
26.209982 -6.4300842 -409.289
26.817644 -7.9373989 -409.47003
23.221916 -11.219297 -409.03293
23.832027 -12.731047 -409.19553
21.227554 -9.3167772 -408.77023
22.650543 -9.7876692 -408.91129
22.929972 -7.4351778 -408.83939
94.629448 -12.391253 -415.88998
92.508598 -10.050395 -415.71948
93.221809 -11.79629 -415.77051
93.266258 -8.7221956 -415.70212
93.959717 -10.462192 -415.8288
95.378838 -11.070669 -415.95749
94.809669 -9.1579313 -415.85468
96.267143 -9.7938166 -416.04572
49.90905 -58.217915 -424.15671
99.596138 -34.332268 -416.9462
59.69796 -46.788876 -414.95187
60.375523 -48.473591 -415.05838
61.17276 -47.36298 -415.16498
42.983303 1.0582756 -410.79767
52.191322 -57.58165 -424.24667
54.336559 -56.662682 -424.4986
47.689651 54.467239 -408.13745
46.48922 57.402508 -407.88364
47.094902 55.936802 -407.98105
48.555161 55.568016 -408.26672
104.98079 -25.374962 -418.16306
106.12563 -24.799685 -418.3551
61.875648 -39.881416 -415.19342
60.900089 -37.491165 -415.25546
61.399498 -38.717804 -415.42239
61.838409 -36.706875 -415.15915
62.395645 -38.12413 -415.54581
54.626476 -46.43317 -414.36313
55.25964 -44.902817 -414.30804
56.727665 -45.515038 -414.52078
67.564445 -41.651264 -415.01581
68.099548 -39.889366 -415.1073
69.393127 -40.048542 -415.18399
91.85788 9.7702761 -426.77771
90.382553 9.9485674 -426.51196
47.104496 -18.469143 -412.27222
48.941372 -16.962158 -412.3894
84.045387 -29.866053 -416.53741
71.730812 -48.896854 -415.89825
73.66684 -47.62421 -416.04401
71.558609 -45.46463 -415.66208
72.203598 -47.022682 -415.85843
74.109001 -45.604805 -416.02945
67.587639 -20.039684 -414.36465
66.883614 -18.293095 -414.21402
69.816498 -19.3673 -414.45877
69.18837 -17.81422 -414.26208
9.2663126 23.506395 -405.82248
91.2472 11.30101 -426.56769
91.980873 12.682855 -426.65491
54.431778 -48.986706 -414.56238
97.873489 -47.237137 -398.74634
99.270416 -47.808144 -398.87183
100.74847 -48.471016 -399.08963
89.399246 -55.739239 -416.81339
70.441681 49.950813 -422.34839
71.938789 49.552654 -422.48117
72.616966 51.178207 -422.48425
71.946266 52.690388 -422.27164
67.992317 49.471272 -422.09476
66.763382 52.501228 -421.9635
68.32785 51.851288 -422.09055
69.833954 51.464966 -422.20059
88.11438 -24.396387 -415.53024
88.076935 -21.111767 -415.44138
88.699623 -22.787058 -415.53751
90.307686 -23.678129 -415.64932
63.773029 23.765905 -410.89838
64.316513 22.326061 -411.0289
64.947182 20.821096 -411.1958
65.809761 24.9478 -411.00336
66.410431 23.462543 -411.07288
66.999435 21.986202 -411.20703
63.181759 25.242962 -410.76648
59.544716 -43.281307 -414.612
59.76762 -40.784599 -415.03204
61.25946 -41.408852 -414.88116
83.570587 7.3354311 -425.69754
110.12899 -34.937134 -418.00372
57.537689 -41.451157 -414.94003
57.045048 -40.262131 -415.19019
23.708397 42.849869 -406.69354
23.325876 46.871841 -406.59836
23.920113 45.401711 -406.66907
25.417528 44.764923 -406.80936
26.013962 43.293064 -406.96921
25.628811 47.313587 -406.76178
27.126936 46.677258 -406.89816
27.721952 45.204494 -406.96185
27.629786 48.487316 -406.9064
25.018391 48.778088 -406.69815
27.046335 49.961624 -406.77408
63.782974 -44.592762 -415.15128
65.211975 -45.063137 -415.2789
66.661591 -45.565384 -415.43906
67.116982 -43.636993 -415.18768
65.595299 -42.933735 -415.08939
87.364594 14.176356 -425.90689
88.057129 16.02166 -425.83466
60.114925 56.101357 -420.99557
60.872021 57.47905 -421.07034
61.644665 58.874092 -421.3175
62.33268 56.798141 -421.36078
91.505951 -26.51598 -416.34628
20.58621 56.761112 -405.92209
21.169395 55.294571 -406.11774
21.764481 53.827709 -406.22366
22.619556 57.899372 -405.86664
16.817577 56.956226 -405.48248
17.388546 55.477657 -405.64359
18.878588 54.834167 -405.78384
19.465097 53.365501 -405.8992
19.088932 57.370773 -405.65195
21.222143 58.320694 -405.53262
109.56644 -33.907063 -417.95013
101.30544 -35.696724 -417.43359
43.801079 -56.393337 -413.35349
43.174313 -54.704563 -413.16568
100.52828 -23.766747 -417.17816
45.63728 -27.164301 -412.61591
43.658875 -25.307026 -412.3494
44.208748 -26.70269 -412.41275
46.141525 -25.356268 -412.65454
47.066872 -27.627996 -412.81705
47.657055 -26.030731 -412.7948
49.110336 -26.592451 -412.95276
48.126823 -24.148319 -412.79648
63.253635 41.759052 -421.93671
64.063026 43.125118 -421.91861
62.561111 43.527798 -421.80176
63.005745 45.650444 -421.65588
64.473175 45.253994 -421.8924
87.434891 -5.7164583 -426.84283
88.56324 -5.3412261 -427.09583
78.556625 46.220402 -423.66269
84.835648 -28.717903 -416.14297
82.359802 0.4681201 -426.13068
83.836952 0.25387123 -426.27084
84.645676 1.5916255 -426.31839
101.25467 -28.630028 -417.0675
76.276642 51.513481 -423.06833
95.481483 -23.872211 -416.24298
93.936974 -23.207659 -415.95349
76.990929 -24.769062 -415.12531
78.475197 -25.370386 -415.24713
78.595749 -22.553837 -415.06186
80.088005 -23.173611 -415.17917
77.096924 -21.922361 -415.00647
50.68586 -45.835705 -413.65421
51.255215 -47.181538 -413.78415
44.066898 -1.6356705 -411.03339
100.18332 -25.963428 -417.63327
101.14679 -25.326315 -417.7077
99.742249 -24.778973 -417.34726
46.109646 36.583279 -409.02896
47.583199 35.959629 -409.17361
48.144596 37.753208 -409.06564
49.045086 35.528255 -409.28793
49.665085 37.102547 -409.20795
45.516304 38.051815 -408.85547
46.037899 39.868744 -408.81747
47.553425 39.228737 -408.94281
47.734386 41.780273 -408.85461
49.278034 41.1474 -409.01193
49.885738 39.672039 -409.09723
74.403625 -40.08086 -415.8187
75.860062 -40.633362 -415.91388
74.853165 -38.155464 -415.6871
76.275436 -38.572845 -415.76224
69.400223 69.006607 -421.7706
65.141144 -35.651688 -415.30692
9.0930958 51.480202 -404.96713
9.683569 50.015171 -405.06259
9.1554298 54.484207 -404.33975
9.7105207 53.03968 -404.84515
11.184039 52.414394 -405.12289
11.780552 50.951488 -405.2388
71.952782 42.745064 -422.78818
72.608932 44.644127 -422.83191
73.267899 46.267876 -422.85242
74.084091 43.987053 -423.07657
74.70211 45.615448 -423.09985
62.398632 60.530842 -421.60349
80.281036 -29.927599 -415.89908
57.984104 51.741928 -420.91718
59.452324 51.346924 -421.04532
60.032993 49.825527 -421.20126
60.044876 52.953117 -421.03873
58.533459 53.620335 -420.95135
57.412678 -61.124908 -424.78326
58.355473 -60.324093 -424.85779
8.1297407 35.501724 -405.41879
8.7729597 33.80764 -405.5986
87.180374 -28.297249 -416.31223
48.798092 20.562445 -410.04684
48.226894 22.02693 -409.97314
49.73251 24.444115 -409.94852
50.333809 22.96195 -410.02264
50.925083 21.487423 -410.17624
50.158325 26.501251 -409.83463
51.694675 25.843021 -410.04132
52.221218 24.397688 -410.11426
52.840645 22.915073 -410.10983
87.967216 -55.332657 -416.87674
77.478653 48.745228 -423.40063
96.607376 -20.447685 -416.25525
97.051941 -18.178528 -416.22964
98.140617 -20.914888 -416.38589
98.53894 -18.813282 -416.41187
90.383484 -6.1729898 -427.88358
89.753014 -4.9751482 -427.26044
90.807892 -4.1799521 -427.19159
96.983681 -27.48568 -417.47855
83.542412 4.1800423 -426.08603
84.323418 5.5337381 -425.99112
86.575798 3.1030631 -426.47928
85.034073 3.755316 -426.26114
85.807487 5.1133099 -426.19666
32.20842 -42.698608 -411.21359
33.691448 -43.330963 -411.45563
33.928741 -40.887341 -411.54425
64.804848 41.100346 -422.05118
65.567436 42.467918 -422.05835
66.314575 40.70549 -422.1492
67.040665 42.070332 -422.21503
65.981941 44.605766 -422.02817
67.490891 44.200409 -422.16251
68.952515 43.802826 -422.35178
78.866188 -54.272305 -416.37308
79.347847 -52.401619 -416.31671
80.350182 -54.887703 -416.46851
80.832443 -53.001614 -416.37119
82.296257 -53.538307 -416.42307
79.910599 -50.673157 -416.2258
83.229958 22.52195 -413.08441
84.675613 22.128063 -413.33627
87.739052 -29.65991 -416.79227
88.623131 -28.687433 -416.6666
89.135864 -30.050026 -416.82928
89.946648 -28.817066 -416.87781
90.395424 -29.98678 -416.87454
78.476059 -6.5197682 -414.0661
79.895538 -7.0813675 -414.16617
80.562859 -8.7792511 -414.29547
80.531944 -5.3192163 -414.28732
78.725151 -4.1177001 -414.06241
82.411995 -7.1529202 -414.49722
52.499653 -44.260979 -414.11505
53.8395 -44.448013 -414.20193
48.015228 -56.621082 -423.35135
69.731857 68.001503 -421.89337
37.898026 10.605701 -409.6463
39.817894 12.001195 -409.83493
36.721462 13.548579 -409.35178
37.333458 12.044221 -409.52771
37.175648 15.558537 -409.24591
38.644749 14.945287 -409.43246
39.218166 13.494408 -409.59702
40.841824 15.633923 -409.61499
41.447491 14.135693 -409.80746
53.101242 -45.742771 -414.23474
81.638184 36.195953 -412.49432
54.039959 -48.041199 -414.32956
27.607893 11.594636 -408.58578
29.030092 11.136566 -408.73221
29.600163 9.7189426 -408.86087
31.081364 9.0956793 -409.06516
29.235613 13.712157 -408.54953
30.722576 13.100912 -408.69299
31.324213 11.596231 -408.87878
32.817627 10.955052 -409.09009
28.649479 15.188903 -408.30789
78.413902 -37.673897 -415.9075
79.843201 -38.109619 -416.05643
50.140301 -55.621521 -423.95789
55.975636 -54.491146 -424.75006
56.477066 -55.743149 -424.80051
81.426041 -38.973148 -416.17731
82.05648 -40.509769 -416.18823
83.5793 -41.178658 -416.25
83.604874 -38.127468 -416.20175
84.212372 -39.629353 -416.22318
49.196133 -20.608688 -412.63345
47.73605 -20.089529 -412.41742
49.580647 -18.500244 -412.53949
51.069111 -19.13344 -412.70819
81.578339 -0.90802848 -426.00385
80.737457 -24.739521 -415.28137
82.216019 -25.337187 -415.36942
90.408028 3.3809078 -426.93405
91.776421 0.054721072 -427.10123
91.868652 2.9720285 -427.0668
88.278328 2.1657152 -426.69443
89.748291 1.7553167 -426.84946
90.295341 0.24793878 -426.90973
42.181511 -46.215504 -413.2048
42.735714 -47.62281 -412.99292
52.864429 67.706543 -419.47086
54.318268 67.324738 -419.75586
54.929344 65.818672 -419.93161
54.89706 68.925888 -419.54623
66.548172 -36.078827 -415.75714
67.621521 -35.66748 -415.81003
110.39448 -48.482132 -399.62494
111.86066 -48.793579 -400.00995
107.81637 -47.977821 -399.46902
109.2794 -45.468548 -399.62064
109.85352 -47.080738 -399.61783
111.30235 -47.35376 -399.89627
47.760597 -32.43121 -413.10233
46.538689 -29.406839 -412.84229
47.128716 -30.888695 -413.03485
49.738319 -31.209013 -413.18466
48.548466 -28.255434 -412.97214
49.136642 -29.723223 -413.12033
48.932579 -58.88269 -424.07358
70.601845 -33.736259 -415.69162
71.96875 -34.085247 -416.0853
24.828074 12.379285 -408.18713
27.030756 13.028319 -408.49084
23.349174 13.013141 -407.99341
24.959139 15.145448 -408.15347
26.42852 14.53646 -408.31519
22.75095 14.484455 -407.88776
53.413143 -60.575714 -424.27097
54.699654 -60.694424 -424.40298
55.579891 -59.703438 -424.6098
106.91342 -23.688396 -418.51135
58.082241 9.8820572 -411.76483
58.928944 10.870296 -411.60211
60.30497 -45.212769 -414.87982
61.758156 -45.725903 -415.1066
60.921028 -43.640057 -414.74713
62.306454 -44.014107 -414.98065
44.991611 -47.004257 -413.22061
47.184986 -46.34478 -413.48975
70.712639 69.133423 -421.97116
55.543247 -39.606178 -415.00653
56.603603 -39.155521 -415.01617
19.993549 42.808891 -406.60272
21.019938 46.420727 -406.37445
21.62118 44.952732 -406.43179
22.209305 43.492294 -406.54504
17.112276 43.832787 -406.12836
17.690609 42.376949 -406.39969
17.332319 46.369999 -406.0347
18.827236 45.734463 -406.20438
19.41683 44.269737 -406.31778
19.536669 47.059612 -406.20819
59.381477 34.582451 -410.20609
60.11816 32.87896 -410.13342
60.84634 34.213177 -410.22443
57.936123 35.255516 -410.08853
58.741177 36.606861 -410.27689
60.230042 36.003845 -410.5433
103.33608 -24.220917 -417.9111
103.84279 -25.466879 -418.01395
104.44643 -24.047096 -418.07327
89.376465 -27.475677 -416.31696
25.47912 4.6050787 -408.66788
26.072754 3.1269743 -408.83905
25.709227 7.1306143 -408.52594
27.175224 6.5159278 -408.76578
27.784082 5.0143399 -408.95288
28.385118 3.5273786 -409.07672
29.008953 8.1246777 -408.89072
29.55587 6.7186279 -409.05215
30.166775 5.2101288 -409.21967
27.489737 8.810482 -408.69662
41.776817 34.960884 -408.73715
42.385006 33.482014 -408.83813
43.879032 32.845196 -409.0415
43.81406 36.129978 -408.87219
44.4534 34.428711 -409.03851
40.270203 35.605762 -408.63101
42.298096 36.774437 -408.67136
82.448174 24.733852 -412.91901
83.906326 23.889328 -413.1192
83.122185 26.087234 -412.90686
84.796982 25.193535 -413.18652
66.97541 38.924427 -422.21121
67.777573 40.303337 -422.29135
68.552063 41.677677 -422.37814
69.281548 39.630077 -422.45532
70.037567 41.0093 -422.54901
70.427147 43.137421 -422.61346
71.542336 40.619293 -422.63412
56.896473 -24.370596 -413.5675
55.675869 -21.339144 -413.26358
56.317665 -22.911528 -413.41385
58.922482 -23.224915 -413.69095
57.723457 -20.234306 -413.36536
58.342606 -21.761465 -413.50653
49.743515 -22.017052 -412.82999
51.18446 -22.492968 -412.98303
51.736767 -23.904081 -413.08972
51.675224 -20.638624 -412.91019
53.170231 -21.28207 -413.07147
53.789173 -22.807671 -413.21408
90.205292 16.776752 -426.38971
32.228134 15.480805 -408.79962
32.916134 13.771068 -408.90128
33.523331 12.279519 -409.06769
30.84828 15.87334 -408.48834
34.613972 15.678362 -409.08121
35.221684 14.197732 -409.13809
34.055866 17.113096 -409.1282
73.829582 20.732153 -411.98108
77.436546 17.975613 -412.50171
74.491051 22.095049 -411.93201
75.309067 20.103413 -412.20065
75.95723 18.603203 -412.36374
75.928055 21.694868 -412.15982
76.616966 23.253975 -412.16299
77.620865 20.561666 -412.45444
78.275558 22.135107 -412.47433
96.97216 -30.945101 -416.64154
98.296638 -30.874634 -416.71997
98.912392 -32.568295 -416.89362
99.738678 -31.294699 -416.8793
56.445541 68.564331 -419.93915
57.02248 67.056053 -420.17578
57.180691 69.935852 -419.95886
74.445976 -30.924046 -415.40778
75.781837 -31.121883 -415.56863
29.639084 -21.104326 -410.40533
30.255308 -22.612242 -410.47433
30.873995 -24.144369 -410.59778
31.920767 -20.681051 -410.66367
32.556591 -22.212206 -410.74692
33.147438 -23.687893 -410.8989
29.054977 -19.658268 -410.30548
30.755692 -17.772984 -410.51627
31.357574 -19.257214 -410.58389
33.845711 -19.310928 -410.85089
34.474819 -20.859379 -410.98779
35.040447 -22.277483 -411.10144
33.289127 -17.91291 -410.67166
68.628975 -44.272572 -415.31891
70.08242 -44.831528 -415.44583
69.030502 -42.159885 -415.21149
70.501305 -42.790874 -415.51169
76.340492 -26.293171 -415.23877
77.603386 -29.444359 -415.39664
78.441673 -28.408871 -415.3428
76.987694 -27.860821 -415.34164
39.679234 24.679239 -409.142
40.020878 26.955408 -408.97241
40.341236 29.262669 -408.82376
41.527084 26.310486 -409.12097
42.10022 24.857391 -409.25089
41.823822 28.638878 -408.98627
62.353668 53.673641 -421.28992
60.72303 54.583279 -421.09674
63.07592 55.339298 -421.53674
89.103752 -6.429224 -427.55786
78.13723 -30.760401 -415.84052
103.83672 -47.058144 -399.27298
104.49987 -45.59853 -399.26926
105.29011 -47.682682 -399.33597
105.02996 -44.006477 -399.24829
106.59354 -44.883358 -399.39175
107.25138 -46.550236 -399.401
75.488693 -36.627357 -415.87482
86.261086 24.79808 -413.53577
75.037865 -32.374714 -416.00864
5.3096819 48.626282 -404.53262
7.9866543 48.105541 -404.91559
4.7581258 53.09573 -404.13803
5.3208222 51.658356 -404.4726
5.8989954 50.194836 -404.65695
7.38972 49.570351 -404.85867
7.0439405 53.584332 -404.30713
7.6074963 52.101032 -404.74573
67.467636 36.966831 -411.15741
49.478115 -57.070026 -424.0061
50.737869 -57.134697 -424.17834
27.514463 42.641525 -407.10431
28.998978 42.019127 -407.30109
30.494446 41.371162 -407.46994
31.082678 39.911381 -407.6376
30.711178 43.935909 -407.25607
29.216545 44.568001 -407.06235
32.573006 39.263134 -407.91656
32.213417 43.295441 -407.44525
32.799564 41.826775 -407.57007
41.104759 39.72332 -408.41965
41.706558 38.247299 -408.53561
41.707523 41.289688 -408.4682
43.314034 40.408421 -408.61774
44.000198 38.691113 -408.68652
43.956089 41.984215 -408.62778
45.438011 41.347672 -408.7348
105.37489 -38.847984 -399.27582
45.308453 -53.761375 -413.59955
63.750385 -35.274475 -414.91577
78.675705 24.219456 -412.32727
80.185196 23.811777 -412.60403
81.657967 23.406609 -412.88361
79.400177 25.566921 -412.34308
80.973518 25.134869 -412.65256
95.294762 -29.845133 -416.68286
30.311195 24.869911 -374.88742
56.727089 10.139814 -411.56995
57.470493 11.395915 -411.44467
3.6640608 46.703697 -404.00308
0.42433536 51.701218 -403.27258
0.99882662 50.252171 -403.58716
1.6004031 48.797455 -403.668
2.1821234 47.31765 -403.76794
2.6946228 52.156654 -403.71347
3.2760148 50.699665 -403.90308
3.8747518 49.232704 -403.94315
35.975304 -49.089294 -412.24609
37.745193 -47.480175 -412.73318
38.392857 -48.93018 -412.3942
39.187988 -47.879948 -412.58929
88.043983 -6.8140101 -427.2471
59.482025 -37.017406 -414.82675
30.851786 -36.29224 -410.86197
30.752922 -32.968548 -410.68698
32.327671 -36.867405 -411.0032
31.35087 -34.445374 -410.78796
32.860359 -35.125099 -411.00351
32.762794 -31.813715 -410.80942
33.324028 -33.229721 -410.91977
34.366302 -35.822395 -411.32071
87.043884 -8.9445381 -415.10165
87.711327 -10.673662 -415.18445
88.21093 -12.11734 -415.25116
86.169518 -6.926784 -415.00455
87.664291 -7.573781 -415.13763
89.566895 -9.2071762 -415.37781
90.399185 -11.208306 -415.45462
90.306519 -7.6649566 -415.47202
91.018089 -9.6157579 -415.55399
89.640335 -6.1492233 -415.24005
85.805794 19.172709 -413.79166
72.45298 -32.113621 -415.452
73.137566 -30.714354 -415.19296
85.669174 8.5424004 -425.95761
86.340904 7.0035453 -426.11002
105.99736 -37.89048 -399.61789
5.4531178 36.034718 -404.97696
6.0349097 34.573212 -405.08969
6.6374636 33.110832 -405.18561
83.16259 -30.775152 -416.65881
88.151276 8.9841671 -426.26749
87.387543 10.781192 -426.18033
88.233116 12.128163 -426.21518
88.944473 10.347561 -426.29688
89.739342 11.712803 -426.34753
61.769344 -17.908447 -413.62897
62.323627 -19.359421 -413.70673
79.435684 19.170492 -412.64297
80.999001 18.744015 -412.88422
79.922913 21.235857 -412.74481
81.384682 20.836552 -412.96979
82.876129 20.191853 -413.12109
41.065079 -43.492321 -413.16544
45.989414 30.722599 -409.3486
45.365547 32.209404 -409.21817
45.910389 34.016617 -409.16428
47.479366 30.090414 -409.50479
47.99995 31.905365 -409.42148
47.396664 33.38496 -409.30557
49.593906 34.094326 -409.46909
71.944778 -37.144886 -415.78885
72.960686 -39.600315 -415.64209
73.453369 -37.770599 -415.68613
81.338791 30.295847 -412.54053
82.341621 28.065386 -412.71033
82.919533 29.901497 -412.78522
54.272911 -39.481586 -414.65268
30.14695 -31.484512 -410.65942
28.054222 -29.346546 -410.32678
28.655474 -30.854033 -410.47821
29.55205 -26.952078 -410.41095
30.182905 -28.504499 -410.55591
30.747784 -29.918953 -410.66605
32.165596 -30.384357 -410.90042
31.490391 -25.627071 -410.59686
32.077229 -27.099266 -410.76462
32.664478 -28.579781 -410.97546
34.13591 -29.188488 -411.15198
33.757938 -25.170284 -410.90271
34.309059 -26.575071 -411.06934
75.105896 -48.066616 -416.07516
75.704857 -49.549538 -416.08423
77.228088 -50.233891 -416.17761
85.472717 23.464504 -413.4455
55.971947 -37.532963 -414.25247
38.363937 21.780725 -409.17444
39.866825 21.134638 -409.34897
40.460789 19.658653 -409.43988
40.285519 23.195805 -409.23694
