ply
format ascii 1.0
comment PCL generated
element vertex 1488
property float x
property float y
property float z
element camera 0
property float view_px
property float view_py
property float view_pz
property float x_axisx
property float x_axisy
property float x_axisz
property float y_axisx
property float y_axisy
property float y_axisz
property float z_axisx
property float z_axisy
property float z_axisz
property float focal
property float scalex
property float scaley
property float centerx
property float centery
property int viewportx
property int viewporty
property float k1
property float k2
end_header
-37.109871 -17.797462 -402.92484
-35.422573 -15.618043 -403.0976
-37.712975 -16.374668 -402.7905
3.1891139 29.867813 -405.41824
-69.585327 -54.834534 -402.67609
94.994766 -39.92923 -399.20981
-49.058556 -95.29229 -414.87125
-33.56316 -91.23822 -403.64505
-12.519065 -47.110886 -426.70728
58.459545 -50.663731 -416.84366
-80.084618 -33.609192 -401.64444
59.815704 -50.476048 -415.6911
62.432404 11.557067 -411.13397
61.65147 10.199523 -411.27151
63.374508 -60.254932 -425.13678
64.582855 -60.116802 -424.92703
1.4627646 -42.431355 -408.36932
24.127029 31.779276 -374.83545
-44.422146 -93.20681 -415.44376
-79.679886 -19.199171 -399.22488
-79.054504 -17.684826 -399.15891
-80.590637 -17.08399 -398.77905
-84.526711 -63.591187 -403.51376
-61.1506 -92.848427 -405.54858
-60.666637 -93.765167 -406.18033
25.741726 18.918344 -376.3486
-17.275394 -1.9713 -403.59109
-15.807839 -2.5960243 -404.15411
-15.809789 -2.5932148 -404.18048
-15.828362 -2.5773292 -404.3176
63.229004 -33.918476 -414.3652
63.778145 -32.180012 -414.33536
50.431419 -59.465237 -424.01239
42.75465 -47.624992 -412.85828
43.401287 -49.119873 -412.87573
42.196209 -46.216675 -413.07587
-81.551277 -65.762451 -402.16214
-81.156883 -66.702225 -402.06046
35.871647 -66.062592 -412.75244
-84.949158 -64.782089 -402.32733
-55.323372 -87.091324 -414.29547
-15.345028 -6.9209003 -418.62796
-60.055656 -83.865471 -404.17853
-59.521378 -82.246727 -404.10577
-58.72422 -84.357628 -404.38333
-43.683559 6.9707499 -414.44525
-41.844585 5.5941114 -414.80688
-42.366154 6.8325348 -414.8078
-42.989201 8.0395918 -415.06076
4.0798478 -23.080257 -421.22754
4.6632996 -23.188866 -420.02325
4.668448 -23.814188 -420.88135
-20.359858 -46.779793 -406.52985
27.900028 33.539101 -376.01532
51.960175 -53.697346 -423.54919
46.634518 1.2958152 -411.51819
44.088898 -1.6462095 -410.87946
82.493393 33.9548 -412.41873
83.99231 33.570259 -412.69009
82.086952 31.87797 -412.45831
-29.865046 -39.267975 -405.38312
6.2140698 -11.167863 -407.37054
6.7989717 -12.616323 -407.53876
7.6047554 -11.548787 -407.68018
8.1838245 -12.995818 -407.81406
-50.769207 21.42944 -412.70572
-55.249229 14.323885 -399.74707
-54.037815 14.423275 -399.99982
-54.410072 15.404883 -399.8396
-60.297905 -94.797897 -406.10126
112.7931 -35.842663 -418.43536
3.8118916 0.96857119 -406.35184
3.2159986 2.482949 -406.18503
4.8007588 4.6194944 -406.44543
5.4045668 3.1547029 -406.46249
6.9006701 2.4831693 -406.71011
7.384655 4.3193841 -406.80984
5.2909074 0.36788836 -406.59854
7.5052199 1.018021 -406.74414
5.8936672 -1.1418759 -406.77295
107.95493 -19.198132 -420.24435
88.949776 28.387321 -416.56726
-6.1732912 30.598227 -417.02475
68.957253 -2.4829781 -414.38809
20.039133 24.473366 -374.9733
-34.258053 -91.950829 -402.69681
-8.2206459 32.731373 -416.48453
3.6110036 -17.288364 -420.14722
-114.3606 13.554433 -396.42908
89.753769 -47.842228 -415.87305
-72.235497 -1.608894 -366.11887
66.360313 -59.08498 -415.23251
63.806801 -13.728184 -414.42749
68.028862 -61.146542 -414.07108
1.3723129 -79.193108 -405.44287
-53.121162 -97.411514 -413.09247
-72.115234 -15.34935 -375.87421
-50.000008 -86.868263 -414.89645
65.367317 7.1898956 -412.25412
66.414948 7.8053193 -412.2356
27.545132 -39.668537 -410.9198
26.083141 -38.984589 -410.68561
24.163324 -40.306141 -410.72797
25.617002 -40.856136 -410.79944
9.308382 5.6904469 -406.80313
10.801701 5.0555897 -406.91928
11.000353 7.5864787 -406.85522
12.670858 7.04216 -407.24869
13.252065 5.6254439 -407.67032
-88.722557 -7.6838102 -398.23773
-88.730453 -7.6752362 -398.27365
34.557564 -48.682426 -412.0777
37.958408 -65.214447 -412.99417
-31.171732 -89.344933 -406.34412
-31.57958 -88.556877 -406.64035
20.37764 -72.728836 -407.97406
37.980881 -67.68866 -410.75314
76.400948 -60.300526 -413.88461
55.891178 9.1282368 -411.65292
54.979988 8.2907324 -411.85928
68.502724 -34.696835 -415.51755
69.771629 -34.788383 -415.81415
45.656609 -27.174408 -412.44006
46.16008 -25.368488 -412.47845
47.085022 -27.638504 -412.64175
47.67347 -26.04232 -412.61923
46.563778 -29.41975 -412.61926
47.15197 -30.900314 -412.8121
45.064976 -28.755192 -412.41302
49.13588 -26.610378 -412.62521
48.574757 -28.274387 -412.64493
109.09585 -29.344116 -417.78372
-14.402672 35.453434 -416.64066
-15.185024 34.337868 -416.30475
-13.940683 34.429081 -416.48187
-16.382837 -47.339115 -407.07275
59.460503 -15.404003 -414.08353
-39.910198 29.853231 -406.8324
54.029938 -52.704048 -423.82324
-18.829855 -7.6154304 -418.1283
-22.622934 38.675446 -402.01202
-23.41246 37.585339 -401.94208
33.017815 -35.113533 -410.59341
-46.118988 3.4161484 -414.1272
-65.855606 3.0429566 -367.9903
107.95714 -36.689114 -415.61993
103.71259 -37.348736 -421.02811
51.546192 -51.238667 -415.19846
-57.188782 -84.616638 -404.68924
35.397896 20.251932 -381.6474
44.187527 -4.9194598 -410.99643
43.432232 -6.2326941 -410.93689
75.938507 55.917797 -423.04675
48.471413 2.6972337 -412.70306
48.690506 -54.996883 -414.3139
-35.843029 -27.230379 -403.78888
-34.704247 -27.10364 -404.21274
-35.098385 -26.103401 -403.99634
79.21862 50.452538 -423.74622
-51.638813 7.8243313 -412.64575
46.823524 -6.3042707 -412.79996
88.262901 30.134375 -416.59265
81.846786 48.818607 -427.44681
81.289772 50.041885 -426.67523
-4.3233275 29.475651 -416.44247
5.007165 -14.870784 -407.89252
5.6464043 -16.314333 -408.31015
19.236275 25.843374 -375.11615
-43.842331 -94.592102 -410.98074
62.997887 5.8645434 -413.20715
67.658051 1.6458937 -413.34479
-16.764341 -67.615562 -405.73593
69.563217 -9.4493723 -413.84717
2.1767125 -41.145123 -408.5943
21.513088 32.272964 -375.61572
-71.987907 4.7526979 -368.80994
-31.725231 -90.353348 -405.21649
-52.523468 -97.906975 -412.03247
-70.376823 -15.496051 -374.97388
65.831169 6.2892542 -412.61508
-107.35142 11.318014 -395.85458
-106.5542 12.640291 -395.79221
-104.97165 12.590212 -395.90335
-104.39712 10.892411 -396.07327
-63.52277 -42.386284 -401.92294
-62.70528 -41.041714 -401.90726
-61.926235 -42.967487 -402.13202
-61.248165 -41.431561 -402.07162
4.3263526 -43.218246 -408.54016
3.8096745 -42.008018 -408.38382
-70.153435 -0.4676089 -366.07193
-14.963526 -81.88591 -407.66592
0.10456996 -78.044167 -409.03253
28.141253 -70.534676 -409.26508
-42.930782 -0.28999308 -401.48846
-43.097576 -3.0680466 -401.43463
-42.458099 -4.4929943 -401.49805
-42.341618 -1.7356958 -401.53522
-40.929882 -5.1156516 -401.65961
-40.268009 -3.5373547 -401.70584
-40.881794 -2.0959065 -401.67792
-44.662552 -2.1827657 -401.30154
-42.470707 -4.4914899 -401.62344
76.140701 -59.921257 -415.22681
-48.460835 -83.024696 -405.88681
58.042789 -48.814964 -414.78845
58.905735 -47.851543 -414.74887
-4.5739303 0.36200693 -405.36285
-3.9900053 -1.1144545 -405.54321
-4.5958991 -2.6171694 -405.52863
46.768707 59.970215 -407.6496
45.245571 60.597458 -407.50964
47.374062 61.542503 -407.63467
46.792332 63.013371 -407.47058
25.913532 27.521427 -373.98105
78.105972 -58.523529 -415.94962
77.699097 -57.552166 -416.02322
27.293764 -69.053383 -411.57925
58.057869 -14.959907 -414.52661
65.670372 28.482275 -410.3403
64.418228 31.667778 -409.94711
64.963631 30.05249 -410.13165
-40.354691 30.6576 -400.91757
-49.092613 -48.886227 -403.17944
-48.477154 -47.375011 -403.35657
-47.009823 -47.742573 -403.51895
-49.992294 -46.687244 -403.16223
-47.95533 -45.271698 -403.26001
-24.937803 -10.838179 -417.92398
-24.484262 -11.977342 -418.20148
-31.775728 -32.758827 -418.57257
-18.159027 35.380341 -415.9884
-18.180237 35.415298 -416.48996
6.099906 34.558964 -404.65112
-66.586678 2.0761285 -367.27042
-4.7276096 -78.490425 -408.35599
-63.194061 -12.550404 -372.79456
51.115837 5.4378715 -411.98914
-27.690752 -9.8167944 -403.88367
98.535698 -3.4744132 -428.8869
41.598934 38.323105 -408.32397
41.14283 39.705261 -408.06754
41.745029 41.274158 -408.09891
43.350578 40.390457 -408.24918
41.164192 42.751232 -408.01773
39.053947 41.815449 -407.84058
37.629162 39.150982 -407.70959
39.665455 40.341511 -407.87381
39.131199 38.518238 -407.92993
-53.107517 12.035843 -400.40723
-54.277725 11.934406 -400.05399
-30.344086 -38.327656 -405.37332
-27.387476 -42.065308 -405.85565
-62.588169 -8.6820345 -369.4183
33.186459 23.597399 -376.5759
-52.831871 16.872847 -412.64508
-32.377499 -33.255798 -405.45816
67.400406 47.579952 -421.88339
68.126801 45.808956 -422.00308
69.121353 46.948959 -422.06329
69.651901 48.558659 -422.18274
65.137398 46.867378 -421.72159
66.647415 46.205482 -421.83359
25.133898 -51.906277 -411.65646
24.629457 -50.835365 -411.87723
93.770798 -54.400654 -413.4483
-74.514313 -6.3122969 -367.18848
-27.758713 -89.018776 -403.52258
4.7774382 -14.014069 -407.30017
7.765955 -27.724495 -408.86758
90.348656 -39.388561 -416.33411
22.453669 30.028326 -374.45383
22.082376 33.69083 -376.1955
-5.7557564 -80.380569 -405.05484
-34.90213 -91.646553 -404.07803
-49.511494 -84.901649 -411.17868
72.062538 65.734779 -422.92624
-72.247299 -38.943558 -402.05646
-67.850807 -75.209091 -402.74536
-70.848038 -77.950386 -403.32443
-71.604988 -75.971588 -403.2348
-69.332054 -78.311913 -403.59378
-69.296288 -74.70005 -403.34998
-67.013458 -54.029709 -402.34027
-73.946129 -61.019794 -402.59012
102.17195 -36.719872 -399.51776
68.549599 -61.477123 -413.31775
-5.5489435 -79.362534 -407.11774
96.636711 -36.390583 -416.09875
-49.779896 -83.154732 -405.84708
58.506458 8.8288765 -412.07983
93.751015 -25.82502 -416.41553
56.751011 16.332998 -410.74719
57.33564 14.866844 -411.01276
55.403564 13.452162 -410.98047
54.819511 14.920918 -410.79541
54.265049 16.349375 -410.56519
20.919519 -59.732651 -411.09488
22.438522 -60.427597 -411.29211
22.851688 -58.401421 -411.26498
24.270021 -58.87888 -411.52048
23.910019 -61.030331 -411.52206
-16.266184 -81.559914 -407.78528
25.481653 31.390278 -374.63257
-68.536331 5.3359828 -369.05997
-35.397785 31.226767 -407.41708
-92.034943 -33.747726 -399.83633
39.011719 -44.472141 -412.84357
38.186028 -45.513756 -412.86853
77.637184 20.553267 -412.33429
78.291924 22.126486 -412.35669
79.939049 21.227825 -412.6279
81.400642 20.828922 -412.85345
79.451805 19.162188 -412.52271
81.01564 18.736292 -412.76465
-60.042068 -20.892725 -398.85483
-59.452484 -22.267302 -399.69894
43.468395 -64.518623 -413.10312
44.431885 -63.831219 -413.32358
51.951069 -14.630624 -412.51511
102.13595 -36.864773 -420.73801
-93.027718 -34.869186 -400.29819
-26.463854 -10.070941 -404.72287
31.066427 23.195326 -375.37869
-4.2487245 -24.197458 -420.30682
-4.2615986 -18.225565 -420.66672
-3.2423329 -17.632563 -420.77197
-28.164944 -38.147877 -419.02792
49.323494 -12.007974 -412.9144
47.520889 1.5457582 -412.28113
-34.343155 -21.738371 -403.86725
-35.343323 -31.663271 -404.0528
-34.362358 -31.079357 -404.37167
47.207706 -9.8192091 -412.33649
34.119774 27.023489 -377.20355
106.80986 -16.16935 -420.0094
61.794754 -33.452995 -414.19592
-109.15792 -2.9019723 -397.73434
-45.832638 -94.468903 -413.15927
-71.859421 -5.5210562 -366.08978
-112.13513 8.0349445 -396.79129
94.269188 -53.211712 -399.16449
21.047724 30.579096 -375.02322
-21.20145 -85.408257 -406.68762
-17.55846 -83.869186 -406.43158
-15.884194 -83.839439 -405.03055
23.69046 -71.87426 -409.08099
-11.266648 -46.026207 -423.7052
-79.173035 -30.371569 -399.75537
-80.793495 -30.494732 -399.823
65.624641 -49.081951 -415.27277
64.783257 -50.135532 -415.18179
65.268288 -51.372002 -415.25012
66.252701 -50.708462 -415.3772
21.242188 -73.364792 -405.36502
3.4822798 -74.145638 -409.57416
4.0876632 -72.596939 -409.79196
1.9588348 -73.488571 -409.56284
-1.2037519 -45.157539 -408.11273
-78.052338 -61.879055 -403.76971
-10.434099 -46.598038 -408.18777
-70.107346 7.3867874 -371.34525
75.225479 -60.259571 -414.89111
-13.921974 -4.5035467 -405.19238
99.146805 -56.313251 -401.54156
40.253143 -41.305233 -412.2337
40.955437 -39.978138 -412.23419
38.908165 -41.025242 -411.98688
39.51083 -39.466702 -412.07919
-72.25885 -88.52121 -403.67883
-71.465797 -90.070946 -403.81137
-70.441238 -88.891502 -403.87408
-69.883736 -90.387627 -403.92957
-72.902153 -86.755783 -403.52338
-71.87471 -85.554344 -403.52115
-71.246635 -87.343636 -403.67651
-70.392151 -86.01049 -403.67776
-9.5263004 -61.114098 -408.33591
-8.694829 -60.1059 -408.37589
-7.7150512 -59.105125 -408.20981
102.61784 -37.771606 -398.81772
69.662796 -59.637199 -415.12491
25.166405 34.660625 -376.55502
-37.725746 30.556313 -407.42474
-53.593777 -83.94754 -405.92075
-55.987263 -84.354019 -405.14481
-56.286186 -83.472633 -404.64206
51.153877 -54.885456 -423.80161
52.411495 -55.001144 -424.21536
-89.263817 7.6684084 -396.22565
-87.864479 7.3946829 -397.2984
-88.650574 9.298665 -397.02979
-87.163437 8.9572821 -397.22598
54.75668 -16.190517 -413.11273
-63.492714 -14.008965 -375.78336
-94.198921 -36.815025 -401.7265
61.083103 -22.339155 -413.50034
63.835278 -23.08165 -413.81885
61.755524 -24.026552 -413.64557
63.124664 -21.323153 -413.59412
65.783363 -21.71579 -414.00525
99.451813 -2.9675376 -428.68616
-3.8699358 -25.438272 -420.76099
-3.2586017 -27.029093 -421.0596
6.327796 50.188614 -403.87842
27.83691 -21.779116 -407.75049
-26.397947 -41.841576 -406.53482
46.46019 -57.121368 -415.39868
72.235649 68.506226 -422.48489
94.806824 8.9546824 -427.14261
96.245293 8.8011866 -427.62994
85.17054 37.866997 -415.53113
84.569763 39.06678 -414.98825
93.789101 18.84359 -429.75284
95.009056 15.7663 -430.00079
-72.024597 -62.056015 -402.27032
-70.817764 -61.41621 -402.27411
-108.62209 -4.0833082 -397.80756
-24.175585 -87.491814 -402.56305
-41.931217 -86.17067 -405.6326
-40.715668 -85.61367 -405.28271
-106.56557 -8.8588676 -397.58524
-105.92335 -10.022676 -397.41949
-72.57592 -60.611614 -402.48871
66.620598 -11.469518 -414.3558
-19.55599 -83.064201 -407.37418
-20.139982 -81.658119 -407.43719
30.895452 -68.85508 -411.72311
21.948565 -72.883591 -407.32001
-49.887939 -95.921234 -414.49249
-71.806992 -15.081338 -374.42377
-7.76226 31.867399 -416.8284
23.316179 -29.125732 -409.71103
23.902781 -30.534359 -409.94553
25.604733 -29.094444 -409.94254
96.891472 -50.737942 -398.83386
97.665855 -49.687584 -398.72586
7.5822735 -35.95565 -408.62894
65.920837 -59.522022 -415.99127
63.00209 -14.83506 -414.00824
63.495678 -15.994669 -413.6835
35.007782 -67.410301 -411.91815
-70.760429 8.0623741 -372.38885
13.351541 -73.619087 -408.94247
51.412342 68.077293 -418.9942
52.879589 67.697708 -419.31409
49.13522 67.371719 -419.05289
49.725952 65.87191 -419.28882
51.195381 65.46907 -419.40167
69.745453 67.984673 -421.74911
-17.86578 -15.601475 -419.18173
20.62221 56.725761 -405.52542
21.258379 58.27998 -405.13638
16.849737 56.937286 -405.18372
17.422523 55.464142 -405.34531
19.118994 57.351559 -405.36487
91.787102 -8.1029663 -415.52615
89.581329 -9.2141218 -415.26614
90.320999 -7.6717443 -415.36023
91.032364 -9.6226168 -415.44287
89.655159 -6.1557198 -415.12766
106.17065 -34.91367 -417.289
-68.586708 3.5369925 -367.68973
-38.124569 31.363571 -401.1496
-16.381193 -4.4905553 -404.57715
-56.007473 -88.708519 -414.72443
35.870178 -45.871315 -412.51501
36.295082 -46.928158 -412.65649
83.809387 10.450859 -425.03897
9.0192652 33.882442 -404.53476
-18.80596 -47.419323 -406.66986
98.84716 -55.595989 -399.09427
-25.73362 -8.4164686 -403.98935
47.620403 -55.424332 -413.48682
-32.92638 -23.033764 -417.35669
-11.539577 -65.160263 -407.91614
31.216427 28.40872 -374.98669
-34.648792 -20.780674 -403.58951
-58.764427 -98.168808 -406.53659
100.71307 -37.354362 -416.87549
20.354593 -58.2994 -410.87982
19.779196 -56.868958 -410.71295
22.267282 -56.929317 -411.04819
21.637926 -55.346947 -410.86398
-112.76671 9.4630089 -396.75
61.362675 -51.14669 -415.11993
-14.78315 -69.705467 -407.64597
-16.966589 -70.645111 -407.51337
-16.300938 -69.077507 -407.39166
-16.259222 -69.075066 -407.01941
89.856094 -41.46051 -416.27203
89.534592 -40.476986 -416.39017
-67.197273 -106.83321 -404.11316
-66.489151 -106.27511 -404.2818
22.814543 32.138592 -375.13742
-28.518976 -88.893051 -405.98669
-32.392349 -90.774605 -403.56122
-51.951385 -98.519058 -411.41022
-13.856986 -46.017204 -423.15198
-1.7490414 -6.653038 -406.19339
-0.63009501 -6.3416033 -406.15781
0.2702508 -5.5538111 -406.2785
-7.4354496 30.843761 -417.20694
61.624538 -55.905254 -424.75751
81.903374 -33.883888 -416.10162
33.468044 -66.253067 -412.49707
-27.073233 -86.876389 -406.75113
106.57309 -35.834888 -416.69141
-5.2314262 -79.630707 -406.36819
8.8186684 -76.25309 -406.39401
-51.220818 -83.231232 -405.77988
-16.638624 -43.976101 -420.49738
-17.043642 -43.171158 -420.30829
-76.734413 -29.967127 -399.94205
-78.242073 -29.288258 -399.69409
-77.687592 -27.527983 -399.70212
-26.99284 -48.947109 -405.63333
-26.13261 -51.19865 -405.87442
-27.577875 -50.840828 -405.68521
-24.599316 -51.837017 -406.05658
-25.497835 -49.675686 -405.86093
-23.977097 -50.343803 -406.05005
57.549282 -41.451603 -414.81567
-10.746662 -48.514633 -407.40759
-10.363145 -49.513294 -407.40094
-47.130924 -57.050411 -403.64359
-46.473442 -55.088764 -403.61917
-45.631855 -57.339466 -403.84949
-45.051422 -55.541664 -403.81018
29.26704 18.755962 -377.30234
50.248943 -50.921082 -414.31842
-29.159721 -9.0247726 -403.21072
-30.577957 -8.714386 -403.02576
-29.749626 -31.252914 -418.86038
-30.339802 -29.744896 -418.61691
66.625 72.653503 -420.85596
67.171089 71.133789 -421.21304
-24.924526 -44.850121 -405.77631
-3.4273396 -78.451141 -408.82571
-65.472443 -10.22088 -368.74448
-59.526234 -85.372276 -404.45142
-59.21122 -86.451431 -404.8049
23.576832 -11.420681 -406.0903
46.27737 -61.500809 -422.10464
27.508978 -9.3898115 -408.74417
-48.08707 5.0643644 -413.83087
-2.5980394 21.99966 -418.62878
-3.3662064 20.877621 -418.2507
101.85706 -7.8481221 -416.59866
100.40054 -7.4157238 -416.26477
100.00008 -9.3066206 -416.30814
98.511742 -9.0999107 -416.19843
98.929222 -7.014504 -416.22238
100.39762 -7.4117694 -416.27109
100.39771 -7.4087658 -416.26697
83.079788 45.437538 -427.09369
35.214226 29.505384 -378.86536
-108.75881 0.66024172 -396.46295
-108.24225 -0.24434336 -396.53275
-107.67717 1.5224423 -396.32825
70.484749 -2.5018122 -413.27054
-71.069183 -55.354073 -403.59631
-0.6772362 -36.599667 -421.78119
-1.53351 -37.689587 -421.74615
-2.1323609 -36.145031 -421.6189
-21.518028 -84.734406 -407.26678
62.562096 -13.77208 -414.98688
0.23613425 -79.837036 -406.08563
13.775795 -74.449257 -407.78845
-96.283142 21.468491 -395.34464
-81.482849 -32.186073 -400.50595
32.280079 -42.839481 -410.14972
-53.138973 -54.972473 -402.75928
-53.110519 -54.981457 -402.50095
-55.267647 -56.203907 -403.01553
-69.091652 -58.993504 -402.32083
-67.182922 -60.041794 -402.49359
-13.801834 -81.256241 -407.77127
-14.207247 -80.425919 -407.94305
-52.977829 -95.900841 -414.88373
-10.99328 -45.821087 -409.26947
-12.083222 -81.645668 -407.19247
-51.45417 -86.457268 -414.62341
53.222401 -49.081875 -414.27963
28.361797 -47.835773 -412.17667
28.85537 -49.102932 -412.43948
27.447075 -48.6572 -412.19583
32.321362 6.0618448 -409.27444
31.734049 7.5581379 -408.89471
33.469475 3.1623905 -409.6669
35.187157 5.0712848 -409.59415
32.878635 4.6389713 -409.47992
34.583755 6.575913 -409.50272
57.275093 33.656372 -409.75418
60.11974 32.844543 -409.82486
57.903736 32.178345 -409.73413
59.402 31.5469 -409.86456
104.74808 -37.029442 -399.67047
28.466372 -68.988739 -411.79788
-17.573502 -7.5499463 -418.29407
29.647596 20.917587 -375.8663
49.81432 -49.778446 -413.80408
37.837372 -16.79343 -410.67197
39.529827 -14.906597 -410.86765
40.129311 -16.396845 -411.01599
40.692379 -17.878187 -411.44781
41.664394 -14.192066 -411.41568
2.7986064 52.138138 -403.18005
81.196892 40.517902 -412.53476
-67.214157 3.2870657 -367.75568
-63.660915 -8.335043 -368.48914
-29.593393 -11.274503 -403.62424
-29.990658 -10.162069 -403.2178
4.4094386 36.492832 -402.78979
4.1374083 36.758072 -402.66467
4.1806159 36.573765 -402.89661
-34.853466 -32.868652 -404.16724
46.052544 -6.5988779 -412.01129
-61.541828 1.3227135 -368.91733
97.983986 8.5836802 -431.01508
-3.4678142 33.810341 -404.89899
-2.9725847 32.611736 -405.12894
-106.05238 -5.4935145 -396.94577
-104.72928 -5.3596458 -396.91537
-69.525185 -52.413269 -403.19907
-34.661022 -24.051523 -403.96225
-54.265503 -96.737419 -414.49188
-30.143806 -90.052879 -404.04016
-10.668645 42.775249 -403.47849
-10.082871 41.319832 -403.6282
-8.0924311 42.5023 -403.8233
-8.6811018 43.958744 -403.70392
-16.615932 -45.824135 -422.86984
3.2648416 -17.993847 -420.8996
-82.498352 24.171036 -397.03314
-82.047462 22.715584 -397.10815
-81.349693 21.310135 -397.28717
-79.391495 22.736948 -397.34213
-83.218864 25.592133 -396.93399
-91.638359 -0.035092101 -396.89944
-93.160431 0.37068787 -397.34418
-16.006081 -63.501934 -406.09976
81.557976 -57.807869 -416.23477
23.367306 33.471191 -375.75507
70.678436 -61.437397 -412.87079
-15.060102 -45.072414 -421.31543
-14.004148 -6.9243841 -418.7739
100.54172 -23.77742 -417.08633
69.837013 -19.390436 -414.12216
71.284073 -19.857574 -414.13608
67.611015 -20.056 -414.08569
69.697983 -22.162243 -414.25406
68.198471 -21.532438 -414.15994
51.797852 50.794582 -408.95502
50.767105 49.873383 -408.56107
52.062874 49.443344 -408.82135
51.64209 47.662663 -408.66376
105.98027 -36.995995 -400.11853
-11.160174 -47.597206 -407.60013
53.561321 -50.03273 -414.80673
-94.415428 -34.204735 -399.35846
-94.857643 -33.099621 -398.99127
-44.483673 -69.839546 -404.45206
49.815735 52.364285 -408.4743
50.464329 53.696621 -408.90131
51.139027 52.253403 -408.97678
10.129751 36.689865 -405.4418
9.5712156 38.122547 -405.23013
-22.181763 -45.385006 -406.4487
-4.0675769 -64.905449 -408.48993
-6.1211977 -66.089836 -408.30084
-3.4797258 -66.386497 -408.66919
-5.5990958 -64.244934 -408.39142
48.795979 5.0758023 -411.20602
28.98947 -25.506657 -410.3371
-3.7046382 -22.602331 -420.67935
-61.238918 -101.68164 -405.17029
-52.938862 17.60741 -400.36438
-33.923733 -32.074425 -404.54477
-49.647678 5.9818983 -413.37701
98.476341 7.0296645 -430.53653
-107.70239 -2.2600133 -396.62018
-107.00024 -3.0875611 -396.7579
-107.92868 -1.2404697 -396.51758
88.419373 -47.24844 -416.35449
65.70829 -57.93298 -415.89246
3.670723 -38.982376 -408.78189
63.499393 -13.012013 -415.23529
31.433125 -69.458359 -409.6315
-6.3752069 -79.785744 -406.77155
-70.202408 -14.800763 -373.31879
-32.476891 -41.942234 -404.88553
60.823563 -49.486889 -415.01859
60.38871 -48.487747 -414.93231
-74.009438 -73.760445 -402.98071
-72.385849 -74.365799 -403.18445
-74.601013 -72.309944 -402.85706
-72.986816 -72.571518 -403.01868
-71.549133 -73.049095 -403.11911
-69.943199 -73.310608 -403.2533
-71.09153 -70.373825 -402.97275
-69.966225 -60.063152 -402.28418
-69.357552 -61.189777 -402.38123
31.3778 -67.195427 -412.3819
-71.594933 2.1291349 -367.06802
26.415081 -70.133476 -410.85287
25.368109 -70.21434 -410.7821
-14.936101 37.959431 -403.59882
23.97649 20.804024 -375.0975
79.644653 31.425623 -412.14304
75.213661 29.772175 -411.44971
76.751663 32.446579 -411.58774
76.030472 31.106981 -411.52859
76.695518 29.381151 -411.69333
77.554405 30.697544 -411.75327
78.347191 28.259022 -412.02075
79.163971 29.585508 -412.08585
77.104622 43.198086 -423.3797
75.589027 43.859024 -423.13864
74.098824 43.982204 -422.93851
52.88245 -52.874149 -423.57452
-16.34605 -7.4364696 -418.48679
26.36989 -12.599719 -408.72015
35.73344 -23.862833 -410.67349
36.30891 -25.265539 -410.8992
37.745037 -25.737097 -411.06161
33.858173 -25.205021 -410.22076
35.827068 -27.095381 -410.80634
104.43724 -17.402117 -416.98898
29.701225 29.167849 -374.54645
27.902155 28.434172 -374.08694
28.398184 29.849321 -374.39932
-65.153847 1.6660767 -367.55835
-63.363407 -9.9264202 -369.71719
-62.939541 -7.1357808 -368.43466
-49.184666 23.887821 -412.82816
-3.0786734 -24.326462 -420.96835
-1.8296686 -24.304609 -421.17297
-2.6606939 -25.377211 -421.12286
-32.767651 -34.990189 -404.85168
69.418289 72.430893 -421.44266
-53.534794 16.241886 -400.07785
83.66893 37.638416 -412.79541
76.926926 56.230305 -423.3353
79.938629 53.353424 -426.39056
-111.92852 12.316022 -395.42938
-112.02234 13.358145 -395.31232
-110.98271 12.846109 -395.32858
-40.203167 -22.785219 -403.034
-38.032032 -21.870235 -403.20193
-40.764069 -21.303192 -402.8407
-38.603138 -20.395733 -403.0477
-41.359272 -19.883081 -402.66122
-39.195164 -18.969517 -402.84918
-72.648293 -57.985653 -403.33118
5.6419039 -76.393021 -409.33453
-12.261003 -82.699387 -404.2016
-50.903938 -96.516991 -413.95145
4.4530096 -31.311234 -415.54645
4.2329388 -31.289934 -417.30527
4.0693989 21.614115 -405.64548
5.7725005 23.535904 -405.73425
6.3326912 22.048281 -405.59787
4.301333 24.179379 -405.55692
1.5899241 27.72496 -405.36951
1.4127853 25.202227 -405.28815
-0.7105335 27.284344 -405.19302
-0.089494854 25.833385 -405.18201
76.537773 -11.06181 -413.69049
76.566826 -11.080963 -413.37598
76.566483 -11.087767 -413.16174
76.567429 -11.057218 -413.22113
81.916054 -58.686508 -415.84409
-50.405037 -95.384048 -414.98489
-84.433426 -31.496134 -400.21024
26.445181 -25.225895 -407.76392
-9.8030577 -2.0826411 -404.92377
-11.106056 -1.9829651 -404.7565
-10.639682 -3.2219772 -405.00232
-10.385872 -0.59462792 -404.80359
40.173317 -25.79933 -411.78174
42.23283 -24.826027 -412.02042
43.674492 -25.314651 -412.2197
44.224701 -26.710363 -412.2836
43.634583 -28.298979 -412.24915
40.727676 -27.227377 -411.97754
42.152393 -27.676184 -412.14398
22.067255 7.1138406 -407.51852
21.504206 8.5381994 -407.36032
22.262192 7.0482259 -407.00946
21.576048 8.6858587 -406.66324
21.531767 8.5320826 -407.21341
107.12219 -27.490335 -417.73062
-12.326495 -47.849213 -407.45468
-20.563114 36.491634 -403.0947
-46.594082 27.381102 -400.46838
98.083069 -2.8431339 -428.16025
-3.4562404 18.285484 -417.89972
-2.7602346 19.610085 -418.31189
-67.25766 -1.3295972 -366.16632
-68.617653 -1.0113442 -366.04874
-24.490522 -45.799515 -405.79391
-28.491098 -11.055557 -404.0715
106.15165 -21.852724 -417.7171
-39.406273 -24.706829 -403.24707
-37.879612 -25.335398 -403.35764
-62.332443 -15.609583 -398.71469
-63.182682 -16.958712 -398.5314
-31.807623 -37.393105 -404.95786
31.982597 26.365643 -375.29282
98.023605 4.4739246 -427.88971
96.501183 4.4043965 -427.45438
70.907356 72.066025 -421.77997
-111.42595 11.409985 -395.58646
-110.36445 11.437052 -395.51324
-108.84246 11.389099 -395.70648
88.924873 -45.367767 -416.25616
-68.941132 -102.83658 -404.52502
-69.705841 -101.23673 -404.38614
-74.648041 -59.972893 -403.41
68.056496 -63.189182 -413.29602
-11.537672 -82.05542 -405.41641
-30.709278 -89.904236 -405.73447
-76.770958 -33.443874 -400.73541
10.015693 -23.716354 -408.47122
9.5285015 -22.467937 -408.43106
8.8134155 -23.450197 -408.50928
73.573067 33.971043 -411.21173
75.264206 32.838844 -411.45178
73.119545 31.89377 -411.22375
73.683876 30.408405 -411.26843
-29.087002 -85.122169 -406.81729
-28.620136 -83.082108 -406.7872
-27.630699 -85.517281 -406.94592
-2.5052738 -44.991135 -408.18378
3.4573398 -76.99778 -409.20123
2.9951932 -75.878304 -409.19531
-14.752157 -42.530567 -420.68491
-14.145128 -43.938267 -420.83688
-13.282804 -42.854183 -420.8374
-19.707664 -8.6299963 -418.32797
-19.308516 -9.5802746 -418.48431
58.09774 9.8664494 -411.64041
-74.494522 -25.165215 -399.83768
-73.80188 -26.835192 -400.01392
-72.964752 -25.485344 -399.99704
-72.197311 -27.409395 -400.22556
-71.499748 -25.858812 -400.16455
-72.200966 -24.192881 -400.00827
-70.73304 -24.560326 -400.18112
-52.864323 -33.216496 -402.0463
-54.636047 -32.166882 -401.64691
-54.052498 -30.374369 -401.58826
-52.498405 -30.600149 -401.93759
-56.725266 -33.322922 -401.35178
-55.21936 -33.638947 -401.55679
-55.245083 -33.627502 -401.77917
-56.715134 -33.31789 -401.14987
99.914734 -40.147011 -398.48477
101.43887 -40.885315 -398.63644
-83.991577 -64.268227 -402.72659
-83.471596 -64.987091 -402.31268
51.23122 -50.295071 -414.30246
69.161919 -33.28352 -415.03967
-65.098984 9.8993731 -398.95789
-63.59605 9.2816029 -399.19513
-62.152012 8.923605 -399.39548
-62.841629 10.594507 -399.18292
-61.376411 10.247466 -399.37454
8.1684408 35.506596 -405.19257
-26.952517 -43.010818 -405.7132
-25.486088 -9.3950443 -404.84192
-17.704115 44.911621 -402.43524
-17.098713 43.449688 -402.53268
-16.961836 46.219032 -402.27026
-19.167631 45.523048 -402.09106
45.832596 3.3067446 -410.67703
46.204861 2.3249936 -410.93533
44.99551 2.2477701 -410.64926
31.111614 26.04315 -374.4498
44.330429 -57.264088 -413.29077
82.524239 39.703442 -412.49579
91.056259 22.078505 -426.46014
-33.695774 -33.013657 -404.57458
109.00493 -26.185865 -418.40369
114.25453 -34.233543 -421.20602
94.737068 -48.564068 -398.80084
21.487791 23.603903 -374.57291
87.194733 -40.856911 -416.37704
88.706779 -41.527771 -416.4259
38.397022 -55.034863 -412.08978
37.769791 -53.485676 -411.97995
-26.478054 -87.592529 -406.24908
-23.743471 -87.133148 -405.16592
21.799583 36.737259 -379.37363
-80.087395 -31.690611 -400.20026
-47.907772 -88.244911 -415.35049
84.660179 -50.156239 -416.07986
84.38414 -52.510712 -416.02341
82.880157 -51.872185 -415.91733
84.378937 -52.508831 -416.04507
84.656822 -50.152443 -416.07861
84.37793 -52.506218 -416.02643
84.372177 -52.507076 -416.10446
1.0168172 50.194508 -402.78113
85.134796 -57.711288 -415.9964
82.75222 -57.707882 -416.20978
73.585442 -59.492889 -415.77414
73.10778 -58.423309 -415.9899
-18.452744 -8.5310535 -418.43805
-17.956837 -9.7568722 -418.59451
99.847115 -21.898186 -416.34357
101.21392 -22.399792 -416.68152
100.07283 -19.468594 -416.37604
99.856476 -21.898216 -416.30609
-50.058361 36.034477 -399.41028
-48.611069 35.422619 -399.55368
-53.44146 34.970512 -399.1539
-51.927677 34.361622 -399.27246
55.147198 -19.95072 -412.98907
53.189007 -21.302553 -412.89313
55.695141 -21.349398 -413.06494
53.690033 -19.460005 -412.85355
51.703743 -20.653065 -412.6972
-35.900795 -92.321823 -403.40488
20.640549 -71.006676 -410.60474
-18.490576 37.60833 -403.00186
-42.910961 30.9231 -400.27429
-43.499187 32.378376 -400.0593
-41.97723 31.755064 -400.20166
51.518501 7.5792875 -411.49191
-25.059336 -20.314125 -418.75922
-23.630106 -20.747986 -419.10187
-25.667557 -18.832535 -418.6004
-23.424685 -17.783295 -418.77176
-22.858376 -19.354425 -419.01895
-64.826408 -13.701496 -398.6358
-64.78083 -13.73007 -398.09784
99.943901 -35.953781 -416.90158
49.578213 -52.51144 -415.13712
-64.167603 -6.5814366 -367.60333
45.440907 -2.0414946 -411.396
13.30547 17.053719 -405.82346
45.525631 -5.5762577 -411.7449
-52.943638 10.981732 -412.43912
112.34242 -34.579941 -418.41351
104.56226 -10.648874 -419.55194
21.260309 21.677914 -374.5907
2.8592863 -29.831703 -421.32159
1.5192797 -29.486696 -421.64752
95.075966 -43.305412 -398.61554
-72.79747 -0.3394807 -366.48938
68.648392 -62.355724 -412.92078
-50.357845 -96.877251 -412.87646
-46.26297 -81.592117 -405.08365
-9.2665091 32.213543 -416.88501
-62.803406 -21.124254 -398.90408
-62.283714 -19.420053 -398.89819
-5.9889474 -42.406673 -421.47882
-2.0482311 -45.985092 -408.06454
30.556761 -68.139015 -412.10046
95.791916 -54.097336 -397.8609
-15.196051 -4.3230357 -404.84082
-7.4967351 41.041813 -403.89279
-7.6110487 38.268764 -404.01959
-8.0899754 39.484772 -403.85925
-6.8032141 39.339584 -404.01474
97.073204 -18.188505 -416.03732
98.564201 -18.826723 -416.12433
99.355446 -17.512218 -416.23694
99.982521 -16.117697 -416.16791
97.7724 -16.832899 -416.01862
99.354271 -17.506306 -416.2218
99.972427 -16.111765 -416.22379
60.236221 -29.464737 -413.47192
61.693573 -29.974058 -413.61493
62.195091 -28.259407 -413.78183
61.62035 -26.81028 -413.73703
63.109234 -30.512775 -414.03763
63.706959 -28.923628 -413.92258
61.672062 -29.967981 -413.79807
68.798393 36.385769 -410.6438
67.487846 36.994335 -410.91541
-68.485893 1.2529752 -366.54382
-25.157265 35.710972 -402.14548
52.414589 -50.195553 -414.55243
-28.75955 -10.171111 -403.57513
-40.966492 -33.661816 -403.31177
-42.406921 -33.275692 -403.13464
-42.726818 -35.49041 -403.20123
-41.182808 -36.113678 -403.37479
-40.437035 -38.10564 -403.56296
-39.690235 -36.803082 -403.61273
-38.943462 -35.483932 -403.67886
-39.503105 -33.993965 -403.51721
87.456894 -5.717515 -426.69907
88.579735 -5.3485107 -426.96854
99.359093 -36.34795 -416.50412
-58.20266 -85.847847 -405.02335
-48.442619 25.487848 -412.44873
-32.055622 -22.174074 -417.81296
-64.587791 -2.2424114 -366.96063
-65.150497 -0.92663103 -366.88983
-52.096916 8.7946291 -412.87817
-4.6332169 -23.095058 -419.67661
87.607735 27.719034 -413.72714
86.242485 28.123541 -413.20325
103.67345 -12.601706 -416.99759
104.2617 -13.32344 -417.24603
96.739006 11.700679 -430.04276
-4.4041567 33.314682 -405.28421
6.6983433 -28.351686 -409.58093
-70.180702 -56.885685 -402.63101
45.433487 -59.894745 -412.01221
20.128075 -72.396622 -409.75806
3.5586307 -18.72201 -421.47974
62.974613 -51.631767 -415.41702
63.177074 -52.777889 -415.85727
68.551224 -13.071871 -413.76663
69.881653 -13.274836 -413.83847
56.488163 -55.748749 -424.67255
57.084293 -57.206738 -424.63464
74.792175 -59.452389 -415.7442
-12.577477 -80.913925 -407.94513
-68.40406 -7.9702272 -366.72409
-25.925568 -1.539374 -403.30997
-24.401928 -2.1428452 -403.44305
-27.563889 -3.6772611 -403.19357
-26.067375 -4.3241167 -403.3403
49.892284 -34.558743 -412.87048
51.840809 -33.285168 -412.91782
50.356117 -32.699638 -412.88348
47.782753 -32.444176 -412.84766
48.42514 -33.851639 -412.86176
49.72023 -34.510342 -413.41931
-17.859766 -35.002155 -420.43402
-19.216328 -34.856766 -420.164
40.475941 -63.209328 -412.74298
8.8366528 -75.153641 -408.66882
52.160007 6.057817 -412.10498
53.590527 8.6279879 -411.40848
53.082928 9.9323254 -411.02606
52.373043 8.5954475 -411.24649
52.750599 -47.825485 -413.77469
89.502525 15.393034 -426.03928
89.008636 13.495541 -426.08221
29.331259 27.549299 -374.33533
28.795231 26.090345 -374.21039
83.12355 -4.4858413 -425.80685
83.121689 -4.4863987 -425.81836
-48.550838 25.92071 -400.3139
-64.929619 -7.7327867 -367.55286
-61.828217 -99.937714 -405.12552
46.297714 -4.0882025 -412.42639
-52.14262 11.837226 -413.04993
-28.647863 -39.223949 -406.40005
-106.77087 -4.3804574 -396.84357
-105.53696 -4.0082092 -396.81076
65.533134 -55.258129 -415.88739
7.5879674 -30.219261 -408.92902
-71.784851 -59.272408 -402.52957
-74.989456 6.4651661 -371.92819
72.667747 66.350693 -422.83041
67.842377 4.2838621 -412.29977
69.007362 4.419055 -412.3454
74.149902 4.1947403 -412.78745
0.93242663 -27.972395 -421.58237
-0.51729941 -27.524046 -421.46252
-0.74469692 -30.112989 -421.57144
94.120331 -36.066605 -416.53595
93.464005 -34.739578 -416.44037
33.83149 -67.037018 -412.29486
-69.899536 3.6128924 -367.65915
-69.333183 -8.9217176 -367.15594
74.465652 -30.947418 -415.25775
75.191078 -29.575184 -415.0672
-22.724533 -62.857841 -406.65454
-21.139482 -63.837597 -407.14957
-20.456215 -62.135429 -406.9808
-19.819508 -64.108047 -407.45419
-21.166706 -63.818794 -407.36484
-21.172466 -63.814888 -407.42264
69.630074 45.419147 -422.12909
68.977142 43.794422 -422.11545
71.984535 42.740925 -422.5293
72.634598 44.637833 -422.6225
71.156998 44.770397 -422.39383
70.465149 43.131145 -422.29117
70.532532 43.116035 -422.21664
78.627251 -56.751945 -416.13901
78.597588 -56.741798 -416.46021
15.12589 -72.574585 -410.23743
-19.592058 37.294109 -402.82748
55.398289 7.1984205 -412.72324
-26.271341 -17.352011 -418.39087
-24.03721 -16.364546 -418.5014
-25.503761 -15.993724 -418.34558
101.47156 -16.557268 -416.51059
102.25905 -15.232988 -416.57544
-44.238171 -73.799759 -404.87439
-44.247009 -73.805634 -404.95175
-26.840885 -8.718215 -403.7207
-28.054432 -8.7310696 -403.41919
-27.198643 -7.740952 -403.38229
-48.715027 26.460108 -411.79633
-52.224953 18.463541 -412.82562
-51.884586 17.519308 -413.09171
24.821749 -5.8429203 -408.78116
-53.227474 14.809933 -412.55945
-50.105846 6.9198275 -413.38614
1.3314911 -16.238529 -420.90695
-69.137833 -50.401951 -403.04532
39.66135 -2.9954407 -409.832
39.660603 -2.9863145 -409.93799
91.367378 -38.771606 -416.33701
22.420496 35.551533 -377.40833
-76.732597 -34.661423 -401.5444
30.173862 -31.504179 -410.15848
30.212051 -31.481468 -409.97464
8.9992476 -30.30514 -408.68564
9.9787426 -29.773701 -408.65051
11.410163 -30.122486 -408.85678
-23.481621 -82.926308 -407.21155
-25.136446 -82.04879 -407.05295
-80.524384 -62.887127 -403.72375
59.274796 -14.7666 -414.82935
-17.447744 36.800987 -406.25323
-3.8629913 -4.8024158 -405.69119
-3.3194418 -5.7443228 -405.95462
-2.6198189 -4.5168681 -405.84775
78.525421 -6.5345316 -413.70242
82.44249 -7.1618977 -414.27103
79.928146 -7.0925326 -413.91846
80.564987 -5.3334069 -414.03958
78.909279 -4.0353322 -413.72083
78.511772 -6.5310621 -413.82114
78.767075 -4.1354346 -413.75381
-79.9842 -65.815704 -402.16385
36.792885 -62.405201 -412.96188
37.371708 -63.784225 -412.98596
-31.978489 -74.71299 -406.13669
-30.542204 -75.171112 -406.33786
-29.101 -75.583305 -406.56076
-31.102999 -76.966614 -406.33878
-29.647608 -77.297821 -406.63007
-27.171461 34.469181 -402.39572
-7.0204196 9.4335966 -404.70099
-6.4116559 7.9952769 -404.78851
-11.157375 7.3354654 -404.3551
-10.5437 5.892498 -404.53
-7.838995 5.3723507 -404.81815
-9.0433044 8.2670097 -404.68042
-8.4488564 6.8011775 -404.71033
26.851126 -14.014455 -409.25977
9.5575209 47.458149 -404.61884
11.24086 49.362469 -404.71609
10.128166 45.980896 -404.79831
11.794971 47.898731 -405.01096
12.39023 46.434921 -405.15808
9.5481176 47.460079 -404.67191
-61.699379 -11.069715 -399.30997
-63.477551 -12.590798 -399.25415
-63.475658 -12.665439 -398.68607
-25.337004 -43.92168 -405.75455
-59.021751 -87.293793 -405.30246
47.701008 4.5887651 -410.97665
46.064514 -0.48990217 -411.50076
45.911312 -9.3739023 -411.76535
44.696976 -9.4316721 -411.47754
45.257427 -10.702637 -411.60248
77.81485 51.399532 -423.21146
76.294952 51.508312 -422.92831
78.388771 53.013554 -423.47858
108.0435 -23.981558 -418.79352
111.91129 -29.246912 -420.86423
-105.90051 -2.4910228 -396.68964
-105.08556 -1.1645119 -396.69171
-103.56165 -1.505181 -396.79327
21.237276 -9.4734411 -407.99045
-49.289444 -64.904991 -402.93292
-48.419163 -63.498562 -402.92743
2.9432902 -40.076996 -408.70151
-21.588253 -86.071136 -405.97342
-9.9340153 37.782936 -403.90973
-38.149734 -93.803574 -404.65137
-100.51588 18.30401 -395.99231
-99.015938 18.220453 -396.08957
31.54171 -49.547291 -412.40796
97.354172 -39.947384 -398.82101
98.163643 -39.083977 -398.84015
-11.451025 -44.437634 -421.36502
31.042173 -48.407761 -412.59204
29.657997 -48.006584 -412.38696
30.536108 -47.289444 -412.27383
-37.523804 -80.558891 -405.75586
-38.379375 -78.269768 -405.5502
-36.913303 -78.638702 -405.78033
-37.611568 -76.948471 -405.65155
-35.511688 -79.198601 -405.94104
-34.012993 -79.505966 -406.11459
-35.922192 -81.062859 -406.04037
-34.435349 -81.428711 -406.1178
76.309303 -57.176388 -416.09665
77.139885 -56.133663 -416.11877
75.674995 -55.630817 -415.94055
-17.505907 -81.643669 -407.54401
56.274124 -16.824049 -413.1825
55.276524 -17.37126 -412.98801
55.74604 -18.340908 -412.99991
-75.675247 5.3256307 -371.04993
-23.964714 -6.5037832 -403.85416
30.352474 24.836985 -374.7262
80.923592 1.0786401 -425.67477
82.372894 0.46324673 -426.01221
81.589165 -0.91209906 -425.88538
51.013027 -15.867014 -412.45038
50.571613 -14.87238 -412.32089
48.957237 -16.96843 -412.26599
-43.509296 29.016472 -401.01431
-35.108723 -19.547701 -403.35327
-33.875263 -19.685429 -403.77228
-37.318306 -26.862185 -403.52206
-4.0116663 -21.612236 -420.5715
44.062832 -7.7437439 -411.30063
42.007469 -8.8603735 -411.0831
110.46294 -29.332329 -418.27783
112.67975 -31.024481 -421.19882
-109.83473 13.772557 -395.48898
-108.90115 15.138629 -395.51682
-108.31462 13.706637 -395.64194
22.357935 24.625872 -374.16425
-68.741913 -56.167156 -402.34656
38.918526 -67.113159 -411.19122
-5.2574649 35.471985 -404.6116
12.056182 -19.528444 -408.44986
9.9627323 -17.441229 -408.21359
11.414456 -17.942064 -408.49326
-55.628998 -96.300026 -414.81119
-24.690653 -86.330307 -406.93314
-25.118824 -85.316231 -407.27246
-7.732398 -4.1537604 -405.44446
74.510963 -27.951328 -415.02625
74.866211 -25.683445 -415.01477
78.577751 37.446186 -411.75214
77.193558 37.86087 -411.57962
76.656929 39.088104 -411.8443
-44.829216 -92.313377 -415.81601
-45.282616 -91.366692 -415.80106
-7.4750829 -47.267879 -407.75671
-7.0623846 -48.212967 -407.62283
-66.479088 -11.025389 -368.99875
-17.386108 37.961376 -403.0278
21.755329 -49.793804 -411.38565
20.916782 -50.807343 -411.47839
22.239161 -51.047523 -411.66141
71.94268 19.068356 -411.71188
70.157036 17.350395 -411.62698
68.689186 17.789183 -411.4577
66.555069 19.933908 -411.1864
67.204132 18.404112 -411.31482
68.467911 21.552362 -411.08145
70.657547 22.277124 -411.26086
70.449776 19.699486 -411.5144
68.987885 20.123383 -411.34219
78.607399 42.192722 -423.3378
80.066292 42.720421 -423.57281
99.696289 -55.374531 -398.32761
-48.332664 24.880135 -401.41196
-52.61478 20.340336 -400.02051
9.278553 30.231773 -403.51596
14.737857 19.150536 -406.51785
86.751839 29.68153 -413.51736
94.907082 12.127027 -427.31519
72.055344 73.571106 -425.18576
72.094986 73.589859 -425.15887
89.807297 -50.606411 -416.21341
19.533663 -10.607471 -409.15802
-58.057049 -101.70202 -414.69116
-65.07386 -102.29083 -404.62146
-64.618439 -103.07467 -404.2998
-63.799625 -101.8757 -404.5033
-51.71735 -97.123451 -413.04245
-8.0875139 36.251507 -404.58374
-4.8026991 34.25494 -404.97614
15.930706 3.9822576 -406.22687
16.502001 2.5773959 -406.34619
16.465521 2.58606 -406.30466
18.258394 4.506125 -406.48135
18.274315 4.4983745 -406.40988
-75.863853 20.290895 -396.46317
-75.804962 20.25802 -395.77661
-78.824173 21.03208 -397.41006
-21.960667 -83.566246 -407.42419
2.3092976 -77.551422 -409.35449
-16.70945 -3.4247684 -404.11948
-16.712515 -3.4139242 -404.14694
61.318413 -35.355682 -414.44888
61.852356 -36.718075 -415.05353
46.256702 14.527894 -410.09824
45.706734 15.942277 -409.90945
47.75988 13.881515 -410.19864
47.624832 17.382055 -409.67902
48.177162 15.918793 -409.94861
49.718048 15.263088 -410.16681
50.025326 17.583218 -409.90012
49.730377 15.25503 -410.05203
47.740711 13.901284 -410.43155
49.957829 17.626343 -410.53864
48.139416 15.953363 -410.48114
-9.878685 -50.787674 -407.58804
-9.2413635 -52.165066 -407.71857
64.075661 35.886543 -410.63174
64.073669 35.878483 -410.68402
1.007534 -77.275146 -409.17587
53.251995 6.3414221 -412.74744
50.533352 -51.862774 -415.26584
9.040103 -51.899132 -409.36099
34.052971 57.370407 -406.71402
31.364635 60.91853 -406.16663
31.963549 59.465652 -406.4086
32.553387 57.991859 -406.48669
33.515663 61.845551 -406.21204
34.075188 60.411572 -406.60895
34.65358 58.937042 -406.74921
35.70507 62.55645 -406.41208
29.108957 60.432426 -405.56152
29.671209 58.999844 -406.04529
-51.366169 -59.476067 -402.38208
-50.539692 -58.154415 -402.60193
-52.21637 -57.496716 -402.75583
-52.16172 -57.520794 -402.27634
108.5345 -27.635166 -417.82788
45.55238 0.584665 -411.10556
46.93811 -0.099318683 -412.30264
-54.771755 13.128139 -399.91254
-53.572147 13.229609 -400.18143
-34.506062 -28.001852 -404.32562
-32.849113 -32.274754 -405.2876
106.2425 -14.929225 -419.90689
69.865051 -0.76619035 -413.55826
-67.50676 -53.106667 -402.37662
-66.375214 -52.21526 -402.25015
7.3510504 -32.46154 -408.78326
8.4586506 -32.127266 -408.65085
-70.984032 -57.721096 -402.69547
-14.017278 -82.79641 -406.20218
-69.859726 -7.7324028 -366.61606
15.184051 -5.9552331 -408.02502
-113.18754 15.680271 -395.13535
-112.2976 15.918439 -395.04941
-19.786867 -66.779327 -407.2294
-19.065407 -65.471573 -407.51495
-70.832207 0.82763791 -366.46982
-9.9838047 -47.455883 -407.68793
-9.5095139 -48.413383 -407.4888
-11.88406 -8.7488594 -419.1304
-11.415732 -9.9666176 -419.28159
70.621506 -33.757057 -415.55386
-77.421928 -17.953047 -399.32407
-76.838737 -19.696192 -399.39908
-76.634521 -16.637033 -399.33572
-75.92041 -18.299719 -399.45328
-75.336884 -19.744854 -399.52344
-74.32859 -15.646748 -399.58389
-73.826965 -17.138411 -399.69409
-73.156464 -18.522163 -399.81778
27.339867 -51.303036 -411.87125
27.940825 -52.77243 -411.70328
29.365725 -53.161007 -411.8168
27.958147 -52.742134 -411.68777
13.997959 -72.928497 -409.75125
-29.385408 33.730537 -402.14175
-15.262947 38.854744 -403.07202
-14.440999 39.913261 -402.97998
-58.542797 -88.821701 -413.89609
9.5097628 33.933155 -403.27167
-49.345627 24.660625 -400.4415
-63.541954 -5.1297083 -367.59528
-14.540288 -66.789207 -406.02975
-13.179551 -67.187645 -406.17133
105.82384 -20.459576 -417.33914
94.028854 13.862785 -427.15384
-60.434307 0.37595764 -370.07584
-68.987267 -43.303177 -402.32291
89.562332 -43.725609 -416.14648
65.479118 -11.801279 -414.81583
-45.43034 -93.525276 -415.15234
57.828026 -52.972271 -424.21188
71.051979 -0.69629604 -413.13611
72.267845 -0.64741856 -412.97141
3.5014808 -24.975414 -421.68402
2.0713818 -24.519241 -421.57294
0.45563364 -46.063183 -408.17685
1.6874909 -48.937813 -408.32147
1.0763942 -47.509548 -408.32233
0.90193146 -43.951328 -408.21439
-2.0407863 -78.861946 -408.97711
-52.785904 -86.546768 -414.52957
-89.25853 -29.441704 -399.13013
-88.706123 -30.947826 -399.35663
-63.284771 6.0220251 -371.84879
-60.003345 6.8899946 -399.68506
-63.358379 5.5673099 -399.26224
-61.930222 5.2069402 -399.54898
-61.53064 7.2126198 -399.52206
-59.269905 4.9492106 -399.76965
-58.396374 6.3087044 -399.81351
-26.069302 -86.104385 -407.05853
-26.564638 -84.918991 -407.1203
-25.734104 -83.909203 -407.18808
60.453747 -17.746233 -413.42673
59.273342 -17.823038 -413.34436
59.817154 -19.281128 -413.3779
60.476444 -20.849707 -413.50897
-47.810818 27.214254 -400.15247
-48.96484 27.13703 -399.88644
-48.281715 28.402784 -399.87869
96.281227 -1.43678 -427.68039
97.683319 -1.8206769 -427.87506
-37.45134 -36.168503 -403.98648
-36.826023 -34.230087 -403.96481
-35.975582 -36.514587 -404.12265
-35.305038 -34.839478 -404.14734
-50.977264 8.8796587 -413.44574
-85.878632 19.336351 -396.80359
-84.331688 18.751366 -397.02841
-83.593224 20.06616 -397.06357
-84.121445 21.513931 -396.96051
-86.403282 23.768673 -396.67627
-85.748009 22.090427 -396.80109
-85.640038 25.095322 -396.69974
-84.942787 23.423597 -396.82852
-97.212921 -37.912441 -399.15488
47.291519 2.6455896 -411.47223
2.1752818 -56.62627 -409.43878
101.44145 -9.9224072 -416.4364
102.82514 -10.603518 -416.79822
56.231262 -28.753901 -413.0704
53.727726 -28.711374 -412.95233
55.0867 -25.848228 -412.78101
55.675854 -27.321388 -412.87463
55.670418 -27.319773 -412.92609
53.118088 -27.190882 -412.6351
53.696159 -28.699266 -413.15598
95.4767 10.308667 -427.44327
-67.543793 -49.019836 -402.20517
-66.25425 -48.896118 -401.91785
-66.992126 -47.533558 -401.9693
6.3576798 -30.127605 -409.7399
95.302597 -52.837986 -398.8996
-16.230915 -83.768417 -406.30316
5.2957115 -11.979897 -407.33551
5.6929889 -12.925452 -407.45419
4.3637195 -13.161529 -407.23154
36.761398 -1.9426944 -409.93314
37.378948 -3.4163899 -410.04367
37.341736 -3.4106655 -410.15405
-45.955067 -75.907753 -404.1312
41.320896 -0.8267203 -410.13983
41.308044 -0.8300882 -410.24542
-4.1037006 -44.462139 -408.80197
57.049553 -49.486652 -415.04416
-17.740042 38.817638 -402.67905
47.120037 -18.478346 -412.06287
45.544636 -23.84692 -412.26205
45.589386 -20.828241 -411.90445
48.174702 -24.180626 -412.28232
46.177219 -22.283436 -411.90103
47.627724 -22.78437 -412.08441
49.239292 -20.641071 -412.11334
47.796413 -20.115894 -411.89627
49.80769 -22.043337 -412.31049
-3.2935772 -39.639381 -421.65353
-2.4930792 -38.582523 -421.67734
-3.9212976 -38.140717 -421.48978
-1.3011874 -77.753532 -409.19611
-85.96331 -65.517151 -401.93146
-23.981064 35.823639 -402.37753
-22.945871 36.423893 -402.24573
-39.475632 31.73241 -400.63235
-38.663742 32.760315 -400.57263
-44.034512 30.575775 -400.1976
-45.446995 30.944874 -399.95987
43.966934 -50.528149 -412.94699
45.38818 -51.003601 -413.1651
-30.597523 -40.273701 -405.00128
25.541916 -9.5628395 -407.19861
-96.178574 -37.601551 -400.21884
