ply
format ascii 1.0
comment PCL generated
element vertex 1513
property float x
property float y
property float z
element camera 0
property float view_px
property float view_py
property float view_pz
property float x_axisx
property float x_axisy
property float x_axisz
property float y_axisx
property float y_axisy
property float y_axisz
property float z_axisx
property float z_axisy
property float z_axisz
property float focal
property float scalex
property float scaley
property float centerx
property float centery
property int viewportx
property int viewporty
property float k1
property float k2
end_header
50.798687 -54.032616 -423.68625
51.102474 -54.855717 -424.12949
52.187523 -57.585728 -424.31232
51.850891 -53.535351 -423.88171
52.392071 -54.995537 -424.41425
52.879219 -56.216431 -424.43451
53.100365 -53.679977 -424.35776
52.853951 -52.838081 -423.78525
54.332661 -56.66642 -424.56335
54.003349 -52.656361 -424.02338
54.321484 -53.521717 -424.52695
54.65543 -54.348572 -424.64359
60.362984 -62.158169 -424.83017
56.89106 -59.860558 -424.78775
57.408394 -61.130405 -424.84631
57.936005 -62.358181 -424.67166
57.723507 -58.790237 -424.85919
58.351669 -60.329258 -424.92059
59.78212 -60.739288 -424.98813
59.472519 -56.884266 -425.06396
59.956459 -58.076324 -425.05981
61.42635 -58.577377 -425.18973
61.898129 -59.7547 -425.27951
62.543407 -61.324955 -425.22049
55.211285 -52.574711 -424.08206
55.972095 -54.494476 -424.8139
56.473625 -55.747246 -424.86389
57.069485 -57.208462 -424.82504
56.436272 -52.696487 -424.31152
56.821941 -53.47662 -424.81189
57.823288 -52.946735 -424.39926
58.154396 -53.664307 -424.82742
58.542809 -54.587021 -425.03342
57.792347 -52.092701 -423.80032
58.932377 -55.541634 -425.11102
59.263977 -53.355888 -424.45578
59.777382 -54.47401 -424.97028
60.201241 -55.588863 -425.1239
60.707897 -54.062267 -424.3761
61.094501 -54.861217 -424.90143
63.862682 -61.446339 -425.15451
65.083603 -61.262943 -424.63196
61.624138 -55.889271 -424.99847
62.034851 -56.960026 -425.16
63.365898 -60.254833 -425.32556
62.816887 -55.848915 -424.47394
63.139561 -56.614235 -424.81995
63.56728 -57.61742 -425.17224
64.074371 -58.923977 -425.25516
64.573906 -60.117348 -425.08844
66.621262 -8.3692093 -421.54095
67.104301 -6.5846777 -422.92703
67.259064 -3.5742686 -424.55865
67.493355 -4.2186146 -422.40717
66.629753 1.1877614 -421.62207
63.97493 4.6218328 -421.15283
58.678097 40.328217 -421.65036
59.295555 38.811214 -421.69772
60.793457 38.166409 -421.92181
60.455826 42.306538 -421.75677
60.990631 40.788616 -421.89832
62.268642 37.770569 -422.15167
56.254494 46.380707 -421.15433
56.87114 44.862865 -421.31815
57.466038 43.35545 -421.41956
58.088051 41.838852 -421.51074
58.446732 47.341564 -421.1918
59.030891 45.83353 -421.31796
59.650753 44.322617 -421.50986
54.247208 51.416862 -420.63177
55.000732 49.408951 -420.93475
55.670399 47.894985 -420.99756
55.795349 50.774063 -420.89398
56.46468 52.398075 -420.87762
57.260075 50.374718 -421.00577
57.826721 48.852226 -421.09036
57.986763 51.738304 -420.99783
52.250423 56.188557 -420.04184
52.811394 54.938736 -420.2933
53.573044 52.912331 -420.46112
53.621246 56.314373 -420.45749
54.356754 54.297894 -420.59402
54.94117 55.906658 -420.57394
55.834217 53.905281 -420.76355
55.710064 57.278782 -420.48752
56.49094 55.523281 -420.70761
50.930058 59.365875 -418.91577
51.535797 57.909748 -419.4368
51.269302 62.116394 -419.80374
51.768658 60.844296 -419.85666
52.134167 59.821465 -419.92273
52.632236 58.564995 -420.09973
53.045578 57.570961 -420.26929
52.624454 61.685299 -420.06195
53.117275 60.711277 -420.13403
53.524605 59.417484 -420.2309
54.197636 57.932796 -420.38556
53.525841 62.819904 -420.04132
54.372074 60.520931 -420.25671
55.07164 59.049866 -420.35233
55.046108 62.15641 -420.17889
49.122749 67.377518 -419.29651
49.713478 65.877159 -419.53128
50.572399 63.59269 -419.66614
51.184292 65.480438 -419.63852
52.082317 63.219971 -419.9209
51.40414 68.087875 -419.23453
52.668777 65.095192 -419.84879
52.867336 67.70385 -419.55746
54.165951 64.441063 -420.03439
62.654827 40.138439 -422.00549
63.25613 41.754871 -422.01251
64.129364 39.7355 -422.09869
64.652115 38.235626 -422.21628
64.065582 43.120865 -421.99432
64.807381 41.095966 -422.12585
65.570023 42.46349 -422.13297
66.317078 40.700977 -422.22308
66.977844 38.919876 -422.28424
67.043213 42.065716 -422.28885
61.102566 43.924362 -421.69028
61.30677 46.54314 -421.43079
62.563587 43.523773 -421.87823
62.13229 47.913609 -421.48206
63.008247 45.646416 -421.7326
63.64827 47.259323 -421.70584
64.475761 45.249798 -421.96835
64.322144 48.887455 -421.73352
65.125824 46.868877 -421.93719
65.984619 44.601383 -422.10306
59.45697 51.343422 -421.12491
60.035664 49.821693 -421.28052
60.60981 48.311199 -421.35709
60.047607 52.949303 -421.11862
61.602173 52.293839 -421.24435
62.247784 50.793026 -421.3913
62.868168 49.283249 -421.53589
62.356438 53.669502 -421.36877
57.210983 56.88216 -420.62665
57.954952 55.129639 -420.91574
58.536228 53.616688 -421.03214
57.745613 58.755989 -420.60965
58.65398 56.491367 -420.86713
59.290874 58.113998 -420.90302
60.11758 56.097519 -421.07635
60.725788 54.579357 -421.17654
60.052696 59.490189 -420.96317
60.874722 57.475056 -421.15103
61.648067 58.869526 -421.39816
62.335419 56.793934 -421.44064
63.078815 55.334995 -421.6156
56.522717 61.772011 -420.38831
57.173008 60.275288 -420.46478
57.128307 63.678703 -420.45364
58.701847 63.040619 -420.67258
59.277779 61.511257 -420.72095
60.824146 60.871433 -421.02136
54.321175 67.321846 -419.84164
54.932304 65.815659 -420.01678
55.636646 64.051575 -420.20309
54.899849 68.922943 -419.63208
56.448521 68.561134 -420.02393
57.025536 67.052788 -420.25995
57.65274 65.55014 -420.45901
57.183811 69.932556 -420.04355
59.097366 65.152664 -420.6507
58.707714 69.297134 -420.43481
83.459625 -5.788496 -425.52505
83.104904 -4.4970331 -426.00128
83.79628 -3.1375206 -426.33731
84.879471 -6.1626763 -425.75546
84.433067 -4.6678452 -426.2308
85.305649 -3.5602598 -426.54788
86.342941 -6.5963211 -426.23041
85.865936 -4.8314238 -426.55475
86.206596 -2.4519613 -426.66382
86.842964 -3.9846904 -426.75876
87.435318 -5.7235556 -426.89752
88.044632 -6.8210192 -427.30139
80.914246 1.0749842 -425.84879
81.579361 -0.91449893 -426.06174
82.326721 -2.475385 -426.11432
81.682831 2.431565 -425.89038
82.361038 0.46168283 -426.18845
83.063164 -1.1117811 -426.25784
83.176033 2.0051546 -426.20511
83.838387 0.24724731 -426.32788
84.587936 -1.7645285 -426.44135
84.647285 1.5849824 -426.37534
85.371239 -0.40962771 -426.49948
80.299332 2.3885813 -425.37231
80.632698 4.5887547 -425.26758
81.593796 6.0414157 -425.48734
82.052292 4.6012721 -425.81686
81.994362 7.8027635 -425.24756
83.543823 4.1737661 -426.14407
83.572006 7.3291979 -425.7562
84.324944 5.5275025 -426.0491
83.007622 8.8274136 -425.45248
67.780083 40.298656 -422.36429
67.491203 44.194721 -422.23541
68.554665 41.672913 -422.45099
69.284073 39.625225 -422.52737
68.955177 43.798134 -422.42508
70.040192 41.004391 -422.621
70.429863 43.132496 -422.6857
71.54496 40.614189 -422.70529
71.133728 44.773449 -422.67612
71.953728 42.73938 -422.85873
65.779327 48.490082 -421.89969
66.634338 46.207569 -422.06824
66.544418 49.866062 -421.96671
67.389061 47.58107 -422.10007
68.11377 45.80896 -422.22162
67.9953 49.466583 -422.16943
69.10878 46.949821 -422.28162
69.607857 45.421947 -422.42044
69.640022 48.559162 -422.39893
70.444839 49.946014 -422.42188
71.165062 48.171837 -422.52628
71.639397 46.639507 -422.70151
63.846203 53.288433 -421.6507
64.440994 51.767933 -421.70197
65.040436 50.246922 -421.80493
66.766487 52.496616 -422.0394
68.331047 51.84663 -422.16559
69.837158 51.46019 -422.27481
60.67255 64.507362 -420.75195
61.236713 62.992863 -420.9014
61.795666 61.751564 -421.20389
62.398335 60.527573 -421.68063
62.130409 64.125748 -421.03226
62.554939 62.890369 -421.37616
59.462864 67.544838 -420.59509
59.597988 70.4505 -420.68884
60.215424 68.926033 -420.7038
60.912251 67.145134 -420.72656
87.697449 -2.8745904 -426.85471
88.564201 -5.3480482 -427.15012
88.494965 -1.5247475 -426.82111
89.24707 -3.5279009 -427.03885
89.754425 -4.981741 -427.31445
89.963745 -2.1366119 -427.00232
90.809372 -4.1865873 -427.2453
91.44342 -2.359024 -427.1445
86.123558 0.9611361 -426.55917
86.89782 -1.0548486 -426.66458
86.577583 3.0963337 -426.53568
87.666344 0.30639714 -426.70062
88.279999 2.1587689 -426.75113
88.966072 3.773098 -426.7876
89.750015 1.7481709 -426.90536
90.296967 0.24072419 -426.96506
85.035751 3.7488086 -426.31842
85.809212 5.1068087 -426.25385
85.670807 8.5358095 -426.01584
86.342598 6.9970026 -426.1676
87.333138 4.4687133 -426.52737
87.863602 6.360158 -426.45575
88.15316 8.977354 -426.32559
89.463936 5.8868327 -426.6835
83.717827 10.457374 -425.60751
84.375565 11.832306 -425.77496
85.138901 10.045186 -425.90689
85.230347 13.177664 -425.87119
85.88327 11.416039 -426.07239
85.890076 14.794103 -425.7767
86.669594 12.78042 -426.11536
87.389565 10.774378 -426.2392
87.350151 14.180619 -426.09311
88.235268 12.121355 -426.27393
86.50267 16.232988 -425.61307
78.59256 42.19112 -423.54547
72.611839 44.638981 -422.90332
73.925217 41.066921 -422.98248
73.270905 46.262791 -422.92383
74.087067 43.981731 -423.14716
74.798599 42.483074 -423.18375
74.705437 45.607708 -423.16974
75.576736 43.857735 -423.34714
76.345261 41.823345 -423.37833
76.267578 45.21896 -423.39517
77.092285 43.195965 -423.58621
77.016312 46.593658 -423.41776
77.771912 44.831398 -423.66077
71.941887 49.547752 -422.55383
72.625839 47.778984 -422.75513
72.620171 51.173244 -422.55695
74.088745 50.531456 -422.82901
74.879021 48.765972 -423.04541
75.404724 47.242931 -423.17645
74.628036 52.405441 -422.841
75.614136 50.140675 -423.08582
71.949501 52.685501 -422.34497
73.916222 54.152309 -422.62808
75.404236 53.776459 -422.96124
68.588364 67.646255 -421.97531
68.990608 66.739029 -422.62888
69.735916 67.997444 -421.97101
70.184517 66.879692 -422.37387
66.596909 72.646652 -421.10373
67.155113 71.138992 -421.45987
67.827408 69.643311 -421.65814
68.085022 72.56424 -421.45209
68.703445 71.060699 -421.67972
69.40416 69.002228 -421.84869
69.383789 72.416931 -421.6763
70.075523 70.641953 -421.89429
70.71666 69.128906 -422.04874
88.946518 10.340653 -426.35489
89.675331 8.5532074 -426.51361
90.384422 9.9416304 -426.57022
88.033386 16.026279 -426.01935
88.994751 13.49525 -426.27423
89.741478 11.705785 -426.40549
89.470512 15.391357 -426.31842
90.538605 13.328395 -426.45975
87.326569 17.570345 -425.46222
88.078171 18.94647 -425.44983
88.676567 17.425982 -426.03964
88.71032 20.331738 -425.43356
89.587563 21.456383 -425.83734
90.372093 22.778337 -425.83286
78.559753 46.214561 -423.73218
79.258774 44.154953 -423.84186
80.053642 42.716599 -423.77917
80.04921 45.547295 -424.02841
80.443008 47.664875 -424.36301
81.669373 44.115864 -424.33316
81.51757 45.156212 -424.40366
76.279755 51.508015 -423.13986
77.482025 48.739597 -423.47113
77.796616 51.392506 -423.42239
78.955193 48.350616 -423.8237
78.349396 53.004219 -423.68933
79.172844 50.441727 -423.95743
75.563766 56.990154 -423.29779
75.905838 55.906002 -423.26382
76.322067 54.918476 -423.19077
76.94516 53.407406 -423.18454
75.842407 58.422001 -423.56201
76.466934 57.229504 -423.64996
76.882217 56.215935 -423.56104
77.609787 55.356365 -423.6871
71.378105 67.38475 -422.34747
71.724373 66.442268 -422.67383
72.065033 65.749069 -423.14709
72.342178 67.197334 -422.66705
72.671173 66.372398 -423.05106
73.070007 65.376625 -423.15924
72.203117 68.508499 -422.72461
73.594582 64.659447 -423.3017
73.94976 64.17717 -422.72498
70.031822 73.713203 -422.09601
70.717171 71.980316 -422.19061
71.394966 70.211624 -422.33881
115.15494 -36.845802 -424.0683
46.240261 -61.500843 -422.31229
46.594723 -62.214909 -423.10922
46.697403 -59.526367 -422.86908
50.553886 -52.94722 -420.83881
52.625294 -51.488533 -419.05786
53.833462 -51.87252 -422.08115
53.767967 -51.498344 -420.3989
53.713921 -50.984226 -418.06512
58.976028 -51.793213 -420.92075
59.263 -52.413807 -422.85889
60.142075 -52.261501 -420.88086
60.095089 -51.721287 -419.71585
55.052841 -51.691559 -422.68869
56.198456 -51.226299 -420.41577
57.390263 -51.446342 -420.88019
57.315472 -50.677364 -418.85361
58.585884 -51.225124 -419.86221
60.739639 -53.13702 -422.36264
61.785213 -52.97007 -418.26596
62.021976 -53.445061 -420.37711
62.552685 -54.501789 -421.82541
59.066887 -14.434462 -416.02655
59.01033 7.368608 -415.7355
66.688438 -8.9555712 -416.64532
66.700172 -8.6487846 -418.25482
66.70517 -8.5243711 -419.90042
67.440384 -7.4464574 -416.67987
67.276924 -6.9513745 -420.57294
67.372467 -7.1111503 -418.92847
67.872238 -5.6381478 -417.06445
67.89225 -5.2679901 -418.77682
68.126106 -5.8508248 -415.8718
67.943718 -2.4233313 -418.51163
68.403885 -3.5355587 -415.88239
65.874519 3.0560079 -418.94586
66.207382 2.240597 -420.49551
67.211998 -0.28116944 -420.80771
67.723053 -1.7496998 -419.89584
60.282791 7.1218042 -416.95935
60.557068 7.0144725 -415.48138
61.825855 6.4836655 -418.05167
63.4384 5.6572061 -417.1481
63.735577 5.1903119 -419.14496
65.272125 4.4124641 -415.36084
65.52861 3.8629019 -417.2309
101.89834 -37.188263 -419.06485
102.11531 -36.838135 -420.85394
102.29548 -37.36277 -419.92767
103.32896 -37.203011 -420.03284
96.979385 -27.491629 -417.52094
97.803352 -26.394026 -417.61813
98.206947 -27.398628 -417.56223
98.819183 -25.641054 -417.52762
105.04396 -37.701488 -422.13733
105.15353 -37.153446 -423.41727
103.39789 -36.43457 -422.11484
103.68806 -37.320335 -421.1441
104.32512 -36.817753 -422.50531
102.98344 -26.783751 -417.67923
105.43045 -26.620201 -417.8797
100.17914 -25.969194 -417.67679
101.1423 -25.332123 -417.75085
102.16605 -24.545689 -417.80325
103.3312 -24.226419 -417.95651
103.83788 -25.473763 -418.05887
104.44138 -24.052876 -418.11816
104.09796 -22.909592 -417.70932
104.97585 -25.382355 -418.2084
98.823456 -3.7004321 -416.54425
89.928284 25.615269 -416.48938
89.549088 26.888109 -417.12479
87.737701 31.380852 -416.13672
88.225471 30.12722 -416.76001
88.915329 28.377661 -416.75076
85.127106 37.858643 -415.71362
85.808868 36.108383 -415.96198
86.387444 34.60471 -416.06659
87.116074 32.869637 -416.24402
83.65049 41.613609 -415.88882
84.528481 39.06065 -415.1741
112.75816 -35.857376 -418.56952
113.2541 -37.103809 -418.46194
114.36877 -39.305435 -418.71872
113.90443 -34.314945 -421.54596
114.54688 -35.821228 -421.7067
111.00253 -31.340012 -418.3378
111.75215 -32.984833 -418.30664
112.30557 -34.587021 -418.5481
111.85519 -29.265581 -420.99814
112.62483 -31.039492 -421.34137
113.34005 -32.824036 -421.64682
107.1044 -27.496325 -417.86453
107.67494 -25.7227 -418.3392
108.51413 -27.642775 -417.96802
109.06844 -29.352249 -417.97159
108.97286 -26.197515 -418.53696
109.67129 -28.14539 -418.25363
108.85979 -24.88398 -418.99179
109.53776 -26.853121 -418.57751
110.42535 -29.3398 -418.41708
109.86645 -23.84053 -421.92178
110.40892 -25.51219 -420.95795
110.93837 -26.757456 -421.03629
111.44874 -27.821064 -421.77368
104.78835 -21.517963 -417.45697
105.49953 -23.280767 -418.12302
106.12054 -24.807064 -418.40002
106.12791 -21.846949 -417.85617
105.77962 -20.460632 -417.49875
106.91206 -23.696478 -418.55701
107.10835 -22.548349 -418.45715
106.73241 -19.851181 -417.97369
108.00964 -23.99198 -418.93573
107.7506 -22.937216 -418.8764
107.90725 -19.208864 -420.38193
108.42474 -20.503752 -420.86319
109.43789 -23.284855 -420.93423
109.06982 -21.815502 -421.70865
104.30074 -14.359256 -417.32843
104.81072 -15.097814 -417.56116
105.12183 -16.099537 -417.52969
105.66159 -13.671041 -419.72629
106.20133 -14.938272 -420.04282
106.74081 -16.186056 -420.16916
107.33881 -17.720528 -420.51669
102.77224 -10.6174 -416.98618
103.63766 -12.606868 -417.13855
104.2142 -13.328433 -417.39218
103.87978 -8.9512539 -420.25153
104.51782 -10.662419 -419.69867
105.19689 -12.416681 -419.7373
100.06313 -4.0342951 -416.88632
100.83965 -5.9295874 -416.80246
101.74171 -7.8779745 -416.85504
101.95576 -4.1726847 -419.73685
102.6507 -5.9255686 -419.79706
103.25286 -7.4375935 -419.97815
99.951302 -3.2161319 -417.11609
101.41401 -2.6800363 -420.01923
37.853088 -56.784695 -412.66373
34.548702 -48.696381 -412.38522
32.19783 -42.696125 -411.3089
33.124638 -45.057259 -411.80991
33.582726 -46.388512 -412.45819
34.043095 -47.53828 -412.64474
33.679214 -43.326271 -411.54956
34.462982 -45.425747 -412.27924
34.953186 -46.751827 -412.76044
30.395618 -38.295368 -411.20938
31.905291 -38.954132 -411.30106
32.489414 -40.396721 -411.37878
30.807562 -36.283657 -411.23468
30.115047 -31.479246 -410.9191
30.709576 -32.956615 -411.06046
27.447687 -27.921652 -410.46902
28.022606 -29.33918 -410.58786
28.62442 -30.848221 -410.7388
25.049381 -21.963327 -409.99777
25.627832 -23.409033 -410.12183
26.261808 -24.964838 -410.24133
26.829823 -26.385128 -410.35358
24.166142 -19.736328 -409.69412
24.677074 -17.951647 -409.69357
25.660257 -20.404095 -409.94614
26.18722 -18.625193 -409.87457
24.406332 -14.2035 -409.44568
24.976095 -15.622021 -409.62448
40.45536 -63.208477 -413.02634
41.166214 -64.952202 -412.81659
41.882812 -63.641998 -413.11517
42.295208 -64.565475 -413.02029
42.699799 -65.289391 -412.63702
43.034023 -63.521942 -413.28116
43.43877 -64.519943 -413.29532
43.93837 -65.486748 -413.16025
43.875938 -62.666473 -413.29224
44.407654 -63.825211 -413.50421
44.866302 -64.952873 -413.45435
45.274467 -63.264687 -413.21088
44.97794 -62.100063 -412.96115
45.756187 -64.564598 -413.25778
45.871101 -64.388313 -414.0686
39.851925 -58.699322 -412.98792
40.470821 -60.226978 -413.08182
41.053116 -61.649845 -413.19083
42.555328 -62.26585 -413.29114
41.943634 -57.781231 -413.1843
42.570354 -59.304878 -413.2023
43.075573 -60.474453 -413.26401
43.461773 -58.320904 -413.26874
43.853462 -59.262707 -413.20422
44.168415 -60.158993 -413.16592
44.568825 -61.131649 -413.14944
45.235958 -61.081181 -412.50946
43.790173 -56.394684 -413.42426
44.351711 -58.079296 -413.50354
37.748981 -53.488537 -412.6272
38.367153 -55.017765 -412.69629
39.274818 -57.262856 -412.84879
39.868805 -55.677315 -412.85815
39.594967 -51.969364 -412.75415
40.268433 -53.608486 -412.8179
41.349586 -56.303375 -413.06491
41.707626 -54.15509 -413.0058
41.780605 -51.266388 -412.97473
42.368912 -52.711693 -413.01166
43.16378 -54.705181 -413.23715
35.96637 -49.090637 -412.32251
36.583973 -50.559811 -412.22998
37.093384 -51.870117 -412.45178
36.271976 -46.927448 -412.87851
37.736748 -47.482174 -412.80905
38.383942 -48.931915 -412.46945
38.960388 -50.38541 -412.61029
39.179291 -47.882153 -412.66437
39.544651 -45.892403 -413.22229
40.569244 -48.268074 -412.70181
41.167179 -49.745735 -412.83301
34.991062 -43.552589 -411.79568
35.839035 -45.854866 -412.73657
35.37262 -41.463936 -411.79163
36.233791 -43.622398 -412.04239
36.792797 -45.118729 -412.70813
37.253986 -46.316708 -412.9675
36.908089 -42.177147 -411.905
37.609451 -44.0714 -412.57977
38.151073 -45.493759 -413.08459
38.283619 -42.590603 -412.28113
38.974663 -44.452835 -413.07776
38.876106 -41.003502 -412.25284
39.606354 -42.868988 -412.6947
40.161331 -44.364868 -413.31155
32.279152 -36.861034 -411.3746
33.917339 -40.886806 -411.6391
33.802597 -37.571846 -411.56393
34.396816 -39.04026 -411.63959
35.896374 -39.697353 -411.80334
35.875862 -36.669914 -411.95673
36.540855 -38.340023 -412.00543
37.41296 -40.38665 -411.99231
37.99221 -38.822754 -412.1799
31.306448 -34.435131 -411.16077
32.809784 -35.112179 -411.37451
32.715542 -31.806261 -411.18182
33.276546 -33.216015 -411.29135
34.316872 -35.811516 -411.69104
34.70705 -33.717216 -411.59125
34.738155 -30.712492 -411.45715
35.320942 -32.169037 -411.56958
36.125057 -34.189545 -411.85089
29.520472 -26.943754 -410.67178
30.150948 -28.497822 -410.8161
30.716375 -29.914089 -410.92581
32.134636 -30.379625 -411.15942
31.457367 -25.618446 -410.85678
32.045132 -27.091688 -411.02411
32.633362 -28.573948 -411.23456
34.105598 -29.184401 -411.41034
33.726059 -25.162266 -411.16177
34.277458 -26.568439 -411.32797
27.089653 -20.879021 -410.16034
27.684931 -22.362259 -410.28427
28.334993 -23.993811 -410.40073
28.938339 -25.494749 -410.55176
29.625549 -21.103062 -410.52612
30.242117 -22.610731 -410.59451
30.860708 -24.142447 -410.71735
31.908537 -20.67939 -410.78354
32.54369 -22.210575 -410.86612
33.134117 -23.686176 -411.01743
26.400671 -16.088005 -409.78827
27.621597 -19.199493 -410.18097
27.851789 -16.691093 -410.11075
29.041512 -19.656782 -410.42685
28.290121 -14.676995 -410.01529
29.297777 -17.196234 -410.40295
29.744894 -15.279073 -410.32376
30.743504 -17.770164 -410.63727
31.34543 -19.255247 -410.70435
31.188154 -15.77771 -410.46936
25.586252 -11.057816 -409.6344
26.184618 -12.530621 -409.71414
26.778122 -13.987004 -409.75259
27.365614 -9.3581457 -409.79068
27.978283 -10.885512 -409.96439
28.594843 -12.383074 -410.01837
30.063921 -12.975764 -410.17236
24.339203 -7.8985825 -409.2533
24.986008 -9.5737476 -409.47961
24.141644 -4.3628778 -409.11545
24.738317 -5.8383636 -409.22253
26.195675 -6.4259157 -409.42715
26.803532 -7.9330635 -409.60757
26.828438 -4.9129162 -409.40765
28.328499 -5.5923758 -409.64322
22.939795 -1.3798296 -408.77914
23.552942 -2.894871 -408.98892
24.450979 1.0055827 -408.8143
25.065866 -0.51652324 -408.98492
25.623579 -1.9128776 -409.15228
26.235458 -3.4471197 -409.32248
23.894444 2.4322875 -408.65594
23.990118 5.2475786 -408.49191
44.751587 -58.852673 -413.47479
44.275501 -57.263386 -413.53769
45.182491 -59.530025 -413.15982
45.424652 -59.911762 -412.2319
44.99313 -56.394897 -413.84961
45.519905 -57.506516 -414.28857
45.899395 -58.696465 -415.57852
45.836826 -58.148945 -414.87631
45.794308 -55.9524 -414.27753
46.383469 -57.09399 -415.62421
47.106247 -55.766605 -415.58121
43.803467 -53.20174 -413.25977
44.728802 -55.462189 -413.6153
43.943146 -50.52158 -413.12903
45.57621 -54.806099 -413.90341
45.29734 -53.761345 -413.67004
45.362675 -50.994797 -413.34534
46.376907 -53.869797 -414.0914
46.091305 -52.824772 -413.75793
46.858936 -55.096123 -414.82791
46.930107 -51.918892 -413.79205
47.324692 -53.128395 -414.34299
47.852905 -54.491257 -415.66669
47.598057 -50.51693 -413.69873
48.143921 -51.905651 -414.20929
48.545444 -53.189495 -415.19104
48.798985 -53.864285 -416.54504
40.769085 -45.832035 -413.31171
42.173092 -46.217762 -413.27853
42.727066 -47.625053 -413.06607
43.377098 -49.117138 -413.08063
44.344917 -45.563866 -413.60336
44.983292 -47.006489 -413.29208
45.560043 -48.440384 -413.28766
46.999588 -48.929443 -413.51123
40.222366 -41.287121 -412.45963
41.055981 -43.491234 -413.24017
41.563644 -44.791374 -413.52997
40.927383 -39.969589 -412.46152
41.520283 -41.452702 -412.59375
42.384315 -43.753819 -413.51172
42.840714 -41.6754 -412.81082
43.317402 -42.964081 -413.43158
43.794273 -44.178894 -413.77603
43.096226 -39.228405 -412.63806
44.566441 -43.050953 -413.77396
44.522934 -39.699829 -412.84515
45.054249 -41.098293 -413.19815
38.184425 -36.239166 -412.16257
39.477074 -39.457836 -412.34488
39.60957 -36.718239 -412.30975
41.10141 -37.356087 -412.46613
41.182331 -34.517147 -412.37939
41.766991 -35.971668 -412.51678
42.525795 -37.816826 -412.63043
36.73975 -32.64045 -411.82623
37.604759 -34.816616 -412.0687
36.907749 -30.001974 -411.69855
38.205051 -33.229942 -412.0174
38.400814 -30.649029 -411.87991
39.695816 -33.860962 -412.16888
39.928059 -31.357973 -412.05579
40.298187 -29.267475 -412.12518
41.398617 -31.980066 -412.27753
35.723747 -27.06126 -411.47446
36.325619 -28.545872 -411.55624
36.207508 -25.228558 -411.53879
37.644299 -25.700586 -411.70001
38.20129 -27.123383 -411.80286
38.840679 -28.665535 -411.95355
38.040844 -23.619297 -411.59485
39.494228 -24.20392 -411.85947
40.13953 -25.787628 -412.06229
40.70417 -27.220304 -412.18024
33.833725 -19.308836 -410.97012
34.462654 -20.857634 -411.10641
35.028042 -22.275589 -411.21945
35.652912 -23.821308 -411.41052
36.229969 -19.140999 -411.26578
36.856323 -20.675606 -411.35663
37.422928 -22.075901 -411.41751
32.662857 -16.361219 -410.60419
33.277424 -17.910339 -410.79147
32.977398 -14.080709 -410.54553
34.482727 -14.754381 -410.76266
35.053715 -16.189032 -410.89536
35.676239 -17.734142 -411.09665
35.095119 -13.196323 -410.75281
36.555134 -13.807859 -411.01733
37.168789 -15.314094 -411.15872
29.500454 -8.503541 -409.9375
30.07737 -9.9338636 -410.10007
30.684414 -11.456575 -410.22452
31.502131 -13.468461 -410.35916
32.172478 -12.096429 -410.41336
31.809202 -8.0963669 -410.11774
32.403477 -9.5874252 -410.30768
33.909489 -10.247098 -410.51187
34.49054 -11.699106 -410.5943
33.964066 -7.3719835 -410.30347
34.616661 -8.9235992 -410.55676
28.906662 -7.0200939 -409.77655
28.527525 -3.001662 -409.49719
30.00872 -3.623873 -409.68604
30.628267 -5.1454473 -409.80081
31.20282 -6.5734992 -409.91663
32.250351 -3.0286026 -409.97104
32.80135 -4.4539609 -410.09592
33.431431 -5.9688015 -410.18658
26.674185 1.6260664 -409.07523
27.24296 0.19482355 -409.19254
27.871365 -1.3531328 -409.35046
28.948612 2.0864484 -409.30374
29.560106 0.58652067 -409.45547
30.139685 -0.87290466 -409.60522
31.651825 -1.5484582 -409.86108
31.34116 2.2617519 -409.6297
31.95702 0.74456513 -409.85873
25.471035 4.6069946 -408.76437
26.064697 3.128757 -408.93497
25.701279 7.1325989 -408.62286
27.167376 6.5177598 -408.86188
27.776268 5.0160151 -409.04834
28.377235 3.5289791 -409.1716
29.001289 8.1263199 -408.98627
29.548208 6.7202182 -409.14716
30.15905 5.2115965 -409.31406
30.753054 3.7373266 -409.44061
25.090792 8.6376991 -408.42667
24.82052 12.380803 -408.28467
25.426346 10.901083 -408.39285
26.910191 10.261562 -408.61813
27.482044 8.8121309 -408.79306
27.023863 13.030147 -408.58749
27.601076 11.596254 -408.67966
29.023392 11.138143 -408.82529
29.593218 9.7205095 -408.95334
23.341574 13.014756 -408.09177
24.95203 15.147158 -408.25156
26.421618 14.538292 -408.41248
48.570827 -49.800926 -413.79419
49.067749 -51.100342 -414.2338
49.530521 -52.472038 -415.34598
49.782021 -49.757542 -414.00601
50.21376 -50.892368 -414.52423
50.494846 -51.819622 -415.47409
50.610573 -48.716908 -413.95056
51.199589 -50.267391 -414.50577
51.49155 -51.185223 -415.41763
51.945358 -49.0117 -414.26562
52.374435 -50.149784 -414.79251
52.678547 -47.765488 -414.2384
53.195057 -49.057964 -414.47537
53.52121 -49.969135 -415.03226
46.571888 -44.934475 -413.85809
47.176975 -46.347321 -413.5603
48.625462 -46.808765 -413.60822
49.155537 -48.198837 -413.7464
48.706566 -44.054192 -414.09927
49.299606 -45.467472 -413.72266
50.668037 -45.843605 -413.81039
51.232723 -47.175335 -413.93903
50.6073 -42.703228 -414.51917
51.081898 -43.867332 -414.18787
45.614651 -42.561626 -413.86517
46.090744 -43.766567 -414.08054
46.392319 -41.39893 -413.6788
46.964565 -42.902843 -414.173
46.838871 -39.339638 -413.19379
47.851662 -41.984516 -414.20349
48.265541 -43.07296 -414.31946
48.163536 -39.604263 -413.39804
48.680981 -40.970203 -414.01361
49.184872 -42.277782 -414.43896
48.60561 -37.609097 -413.26599
50.122856 -41.518997 -414.48932
50.085121 -38.230598 -413.48291
50.687695 -39.816334 -414.00488
43.508224 -34.160778 -412.69913
44.107693 -35.645611 -412.80392
44.703186 -37.125916 -412.92181
46.185852 -37.749477 -413.08252
45.328785 -32.552555 -412.94095
45.90395 -33.987812 -412.96622
46.545151 -35.544529 -413.01523
47.995625 -36.108337 -413.18762
47.754002 -32.432621 -413.16583
48.320557 -33.840382 -413.168
41.72628 -29.716938 -412.28711
42.867645 -32.617214 -412.56174
43.250214 -30.414993 -412.52011
43.612411 -28.292578 -412.43906
44.697826 -31.016607 -412.77814
45.037758 -28.746914 -412.64868
45.630558 -27.165371 -412.68381
46.532162 -29.408096 -412.90701
47.122185 -30.890041 -413.099
42.129086 -27.669415 -412.34531
41.668388 -23.427315 -412.04324
42.209 -24.817961 -412.22803
43.652157 -25.307878 -412.41864
44.201946 -26.703625 -412.48145
43.935902 -22.951273 -412.30597
45.512642 -23.827192 -412.59171
46.134953 -25.357368 -412.7226
38.354778 -18.278082 -411.48813
38.929214 -19.714743 -411.55203
39.568542 -21.261013 -411.66583
41.05714 -21.907406 -411.86667
40.665211 -17.86869 -411.68066
41.240875 -19.31834 -411.81744
42.743473 -19.978846 -411.98743
43.348862 -21.476717 -412.12039
42.864944 -17.204943 -411.92963
37.742947 -16.763069 -411.31155
38.205696 -11.716777 -411.08792
38.815563 -13.22508 -411.23163
39.459343 -14.882812 -411.40399
40.061195 -16.374983 -411.55313
40.460423 -11.229588 -411.35022
41.077595 -12.756353 -411.52252
41.635563 -14.180442 -411.67108
42.260345 -15.710996 -411.81104
36.07888 -9.5587311 -410.86877
36.668968 -11.022565 -410.90884
36.366776 -7.2336183 -410.86072
37.803032 -7.7059155 -411.11551
38.388294 -9.1573877 -411.18408
38.497234 -6.3299022 -410.95776
39.887684 -9.7895918 -411.21033
39.992664 -6.9399748 -411.06491
34.035122 -1.3495226 -410.06732
34.636356 -2.8376057 -410.21985
35.245159 -4.3424716 -410.4198
35.789246 -5.7592278 -410.58694
36.730736 -1.9170442 -410.44006
37.317703 -3.3815248 -410.56976
37.9048 -4.8445158 -410.74557
38.430161 0.00066995621 -410.53549
33.44582 0.11409776 -410.00009
33.446865 3.1718171 -409.88562
34.029907 1.7131064 -410.00726
35.531506 1.0766207 -410.10031
36.143856 -0.44513795 -410.27625
35.760944 3.5801578 -410.01242
37.252422 2.9514225 -410.16098
37.82716 1.5021868 -410.3609
31.074406 9.0972166 -409.15677
31.678734 7.5901222 -409.38202
32.288872 6.0791383 -409.57919
32.854454 4.64921 -409.71063
33.401337 9.4671211 -409.46307
33.978893 8.0193996 -409.60461
34.561195 6.5890346 -409.73965
35.164242 5.082377 -409.82782
29.229076 13.713751 -408.64307
30.716066 13.102458 -408.78568
31.317442 11.597709 -408.97083
32.810883 10.956486 -409.18127
32.221081 15.482058 -408.89459
32.908993 13.772343 -408.99554
33.516327 12.280973 -409.16135
28.642899 15.1905 -408.40201
30.841396 15.874702 -408.58408
19.988134 42.811573 -406.70746
21.014582 46.423195 -406.47946
21.615807 44.955082 -406.53622
22.203928 43.494629 -406.64886
23.703094 42.852051 -406.79471
23.320768 46.87376 -406.70059
23.914919 45.403652 -406.77069
20.639952 50.438583 -406.25775
21.234575 48.972343 -406.39343
22.731304 48.341831 -406.58127
22.355753 52.365379 -406.40637
22.94425 50.890076 -406.51532
20.581558 56.764126 -406.0271
21.164564 55.297218 -406.22217
21.759708 53.830265 -406.32748
59.979088 -51.050861 -416.72171
54.031796 -48.041229 -414.39502
54.42342 -48.986145 -414.62769
54.827698 -50.291515 -415.87979
55.200924 -47.880257 -414.48813
55.839565 -49.658783 -415.27756
55.604671 -48.838512 -414.7186
56.073032 -46.974686 -414.51349
56.630352 -48.369164 -414.66971
57.026039 -49.453102 -415.23431
57.536549 -47.533386 -414.68164
58.458893 -50.566929 -417.03091
58.01844 -48.791691 -414.9762
58.322224 -49.578228 -415.39304
58.233643 -46.202198 -414.77759
58.882675 -47.840179 -414.93347
59.367241 -49.101345 -415.10938
59.80883 -50.441311 -415.88989
51.81234 -42.610336 -414.55374
52.492046 -44.264027 -414.18204
53.093693 -45.745785 -414.30124
53.214935 -42.987682 -414.46387
53.831791 -44.450798 -414.26825
54.618832 -46.43486 -414.42923
53.84304 -41.501011 -414.8284
55.248405 -44.899136 -414.37073
55.245895 -41.870148 -414.83371
55.802059 -43.292477 -414.52441
56.719902 -45.517113 -414.58609
57.383091 -44.137398 -414.5639
51.259392 -41.253086 -414.60767
52.145451 -40.369816 -414.53812
51.836853 -36.428246 -413.62723
52.387562 -37.824368 -413.72952
52.856682 -39.0481 -414.19833
53.414574 -40.485119 -414.80402
54.265106 -39.481762 -414.72003
54.777912 -40.727356 -415.02798
54.55014 -37.035454 -413.94595
55.535728 -39.607075 -415.07281
55.383881 -35.997898 -413.87354
55.964214 -37.533192 -414.31854
49.853775 -34.550098 -413.31348
50.401505 -35.954865 -413.47513
49.731846 -31.210573 -413.2475
50.326054 -32.683144 -413.3176
51.78791 -33.262589 -413.50229
52.432816 -34.844009 -413.62546
52.386158 -31.632023 -413.4837
53.899548 -35.433643 -413.77798
53.860352 -32.226791 -413.62448
54.458206 -33.719788 -413.78476
47.0602 -27.629187 -412.88419
47.650524 -26.031973 -412.862
48.542088 -28.256863 -413.03616
49.130245 -29.724724 -413.18378
49.103867 -26.593824 -413.01917
50.545273 -27.082941 -413.1525
51.141945 -28.568544 -413.2937
51.751122 -30.074022 -413.39737
51.045971 -25.257698 -413.13318
46.118938 -22.244972 -412.49112
47.570312 -22.750305 -412.67352
48.120434 -24.149567 -412.86386
49.55328 -24.620144 -412.9975
49.189331 -20.609575 -412.70627
49.736732 -22.01803 -412.90253
51.177765 -22.494148 -413.05478
51.730022 -23.905409 -413.16092
44.374901 -17.879925 -412.08768
44.94363 -19.297203 -412.16281
45.552624 -20.809259 -412.30505
44.969097 -16.276756 -412.02725
46.462296 -16.909655 -412.14871
47.097744 -18.469877 -412.3461
47.729202 -20.090267 -412.49103
46.955273 -15.091992 -412.10199
48.412136 -15.551937 -412.31747
48.934574 -16.963434 -412.46271
49.573959 -18.501179 -412.61255
42.614254 -10.391221 -411.51892
43.194954 -11.862333 -411.70807
43.784245 -13.335772 -411.85236
44.359802 -14.758183 -411.94339
45.210522 -10.695119 -411.84491
45.861477 -12.395949 -411.93457
46.408684 -13.653966 -411.97458
45.864986 -9.3744211 -412.00586
46.632717 -11.348824 -412.06238
46.822594 -8.8385086 -412.5791
47.149006 -9.832881 -412.5654
47.826576 -11.571397 -412.45117
41.414997 -7.4219742 -411.18539
41.979275 -8.8464279 -411.3334
41.726151 -5.1013541 -411.05179
43.35915 -6.2066102 -411.35443
44.025753 -7.7351708 -411.55145
44.655106 -9.4252892 -411.7262
44.05212 -4.8901877 -411.41956
45.448689 -8.1464205 -411.86374
44.9086 -3.8560278 -411.64185
45.460751 -5.5670705 -411.9758
45.999828 -6.596601 -412.22647
46.469185 -7.8404942 -412.45129
39.0149 -1.4639783 -410.6817
39.614105 -2.9408414 -410.7598
40.232719 -4.474792 -410.8927
40.644005 0.66718554 -410.62943
41.242775 -0.82169235 -410.78506
41.817635 -2.2729914 -410.92151
42.407986 -3.7518167 -411.04883
42.97673 1.0581417 -410.87866
43.515789 -0.36643299 -410.9592
44.058994 -1.635689 -411.11325
44.359928 -2.5736058 -411.30481
38.875595 5.0843554 -410.19156
39.422562 3.6689715 -410.35822
40.051548 2.1414173 -410.50089
41.149364 5.5535827 -410.45346
41.774185 4.0233364 -410.64066
42.37225 2.5416162 -410.75848
35.588593 10.174602 -409.61804
36.202965 8.6632042 -409.67697
36.781647 7.2285495 -409.73633
37.369934 5.7536154 -409.93076
37.890881 10.606729 -409.74194
38.510174 9.1006126 -409.88248
39.095009 7.6347022 -409.98953
40.59679 6.9783263 -410.23898
39.810928 12.002173 -409.92993
40.407223 10.521095 -410.07373
41.003174 9.0441914 -410.17419
35.02599 11.594863 -409.45123
34.607368 15.679369 -409.17511
35.215107 14.198744 -409.23138
36.714497 13.549726 -409.44861
37.326355 12.045478 -409.6239
37.169079 15.559626 -409.34296
38.63789 14.946416 -409.52866
39.211216 13.495625 -409.69257
38.833725 17.513557 -409.41043
34.049446 17.113913 -409.22269
35.944973 18.544018 -409.20709
36.543438 17.069202 -409.22577
37.65963 20.448025 -409.29413
38.273727 18.959276 -409.37265
27.502279 42.649097 -407.27945
28.987202 42.027882 -407.47528
30.483873 41.379627 -407.6434
31.07233 39.920101 -407.81049
30.699579 43.943363 -407.42996
25.412382 44.766724 -406.91013
26.008793 43.294998 -407.06937
25.62402 47.31572 -406.86298
27.122114 46.679001 -406.99854
27.717028 45.206284 -407.06165
27.62512 48.489067 -407.00693
29.204948 44.574883 -407.23712
29.134439 47.860386 -407.11945
29.715229 46.382187 -407.17285
24.439837 50.255142 -406.67007
25.022264 48.782238 -406.79617
24.360752 53.538376 -406.52267
24.954193 52.075935 -406.61084
26.453156 51.435085 -406.75211
27.041702 49.963531 -406.87518
26.966717 53.244858 -406.67682
22.614561 57.904167 -405.97046
23.181534 56.474064 -406.28134
23.768124 55.009102 -406.4444
25.200815 57.64156 -406.30139
25.785923 56.184116 -406.47006
26.374331 54.70871 -406.59451
66.797127 -61.183159 -414.84326
67.184868 -62.048489 -414.09818
68.063904 -63.250095 -413.50385
68.022003 -61.170605 -414.23419
68.666031 -62.451241 -413.15796
68.547432 -61.527294 -413.50528
68.73732 -60.59433 -414.44107
64.757515 -56.726543 -416.51181
65.916016 -59.537346 -416.16934
65.701958 -57.936077 -416.06509
66.497879 -60.447655 -415.6037
66.353798 -59.097351 -415.41006
65.52858 -55.249668 -416.06088
66.10321 -56.729641 -415.96225
66.819534 -58.360222 -415.82205
67.332306 -59.529137 -415.43655
67.720215 -60.359268 -414.89978
67.141068 -56.076893 -415.85165
67.727837 -57.554947 -415.72766
68.238785 -58.701687 -415.56903
61.289516 -51.096176 -415.83481
61.776535 -51.906628 -416.41428
63.184887 -52.745716 -416.05396
62.963333 -51.615147 -415.59702
63.640232 -53.630051 -416.34729
63.90287 -54.469246 -416.60477
64.373344 -55.32901 -416.56015
63.728165 -50.59333 -415.33777
64.141876 -51.754364 -415.45731
64.546967 -52.640285 -415.60251
65.016403 -54.010338 -415.91809
64.763161 -50.131355 -415.35379
65.250305 -51.365322 -415.41956
65.749557 -52.589138 -415.57703
66.153046 -53.520233 -415.65451
66.53875 -54.614281 -415.80435
59.690598 -46.790859 -415.01434
60.368519 -48.47401 -415.11987
60.806877 -49.466087 -415.20932
60.297604 -45.214909 -414.94196
61.165516 -47.365528 -415.22665
61.85228 -49.099476 -415.19998
62.233543 -50.078262 -415.28772
61.7509 -45.72821 -415.16797
62.642002 -47.941986 -415.29327
63.257526 -49.557846 -415.23734
63.232956 -46.331642 -415.30365
64.166161 -48.630978 -415.35223
63.776009 -44.5952 -415.21133
64.727768 -46.965218 -415.38474
57.531116 -41.454742 -415.0051
58.129002 -42.883896 -414.68106
58.854103 -44.646374 -414.6792
59.53759 -43.283916 -414.67526
59.76046 -40.786961 -415.0957
60.913818 -43.642521 -414.80933
61.252872 -41.412628 -414.944
62.299297 -44.016529 -415.04211
61.869354 -39.885098 -415.25571
62.762035 -42.058983 -414.92911
56.596268 -39.156319 -415.08203
57.038219 -40.264786 -415.25577
57.360504 -37.931206 -414.76086
57.955585 -39.456669 -415.28976
57.419952 -34.945999 -414.03616
57.959641 -36.291153 -414.3306
58.739136 -38.313393 -415.17892
59.238838 -39.571308 -415.33984
59.474796 -37.017956 -414.89102
60.063656 -38.522228 -415.37039
59.830639 -34.785831 -414.3071
60.893002 -37.492794 -415.3186
61.392853 -38.721077 -415.48517
54.235409 -30.111681 -413.57593
55.971954 -34.393967 -413.91849
55.667267 -30.566811 -413.71967
56.242531 -32.011044 -413.82733
57.768402 -32.711437 -413.99136
57.597553 -29.197346 -413.84393
58.182186 -30.654308 -413.95978
59.284519 -33.393848 -414.17493
59.660118 -31.263086 -414.08047
52.490978 -25.741009 -413.28363
53.048363 -27.156792 -413.40744
53.672302 -28.685312 -413.52209
54.401745 -24.339611 -413.42938
55.000237 -25.822115 -413.58948
55.590221 -27.293827 -413.68201
56.162964 -28.736296 -413.77414
56.890163 -24.372362 -413.63531
57.480305 -25.839579 -413.73526
58.094997 -27.357656 -413.81274
51.062477 -19.134512 -412.78043
51.668575 -20.639692 -412.98206
53.163689 -21.283354 -413.14255
53.782616 -22.809107 -413.28455
53.660599 -19.450817 -413.10968
55.121513 -19.941727 -413.24237
55.669552 -21.340765 -413.33261
56.311352 -22.913181 -413.48221
55.722698 -18.338593 -413.20352
48.975319 -13.980456 -412.4223
49.916443 -13.738875 -412.79666
50.493984 -14.922515 -412.70056
50.987362 -15.867455 -412.64975
51.502384 -17.098312 -412.65012
51.220825 -13.674795 -413.42767
51.770638 -14.837527 -413.03192
52.288864 -16.038059 -412.83975
52.66106 -17.012024 -412.79166
53.12286 -18.01968 -412.90808
52.408218 -13.369254 -414.82684
52.702213 -14.058031 -413.96533
53.156422 -15.283203 -413.31927
53.532883 -16.24786 -413.08475
54.058201 -17.165478 -413.02432
54.022373 -14.244305 -414.71155
54.281452 -14.980309 -413.87613
54.725563 -16.213051 -413.33249
55.253185 -17.372778 -413.1929
48.342163 -12.522927 -412.43115
48.090015 -8.8693142 -414.71478
48.438992 -9.8262501 -413.9299
48.874237 -10.783465 -413.6597
49.273056 -12.032242 -413.11813
50.75922 -12.471608 -414.2453
46.744808 -6.3021398 -413.03271
46.231155 -4.0754304 -412.66528
46.81395 -5.3471713 -413.42657
47.407627 -6.8594155 -414.37601
44.954899 -1.0020149 -411.31339
45.386162 -2.0267944 -411.63196
45.725647 -3.021162 -412.08481
45.505405 0.60294867 -411.33997
46.010456 -0.47127566 -411.73764
46.611145 -2.0159373 -412.88284
46.099617 2.3774779 -411.29471
46.885139 -0.08208248 -412.53326
46.578667 1.3120298 -411.74625
47.462311 1.5659649 -412.52759
47.237907 2.6743243 -411.70407
48.406971 2.7346501 -412.94977
43.106495 6.8916383 -410.48431
43.656105 5.4975843 -410.71323
44.280663 3.9555466 -410.90045
44.92255 2.2838016 -411.02408
45.752869 3.343878 -411.01819
45.284134 7.6247802 -410.64374
45.913353 6.0985255 -410.76682
46.457741 4.6779957 -410.91718
46.876667 3.6535017 -411.23993
47.653088 4.6178493 -411.21301
48.118027 3.6891983 -411.76929
47.682728 7.8107471 -410.87354
48.297188 6.3074198 -411.0856
48.745827 5.1074843 -411.45505
49.266499 3.7855349 -412.79526
42.482975 8.4343309 -410.28055
42.000248 12.710262 -410.05084
42.622986 11.191141 -410.15738
44.112511 10.562722 -410.28656
44.729271 9.0512772 -410.45593
44.334103 13.10645 -410.21423
45.842171 12.452333 -410.39563
46.439137 10.969703 -410.49817
47.024105 9.5015974 -410.66644
40.268341 17.083824 -409.55771
40.835102 15.634813 -409.7103
41.440887 14.136667 -409.90213
42.567596 17.521593 -409.76682
43.126343 16.086121 -409.91183
43.72921 14.596206 -410.08655
44.475174 18.949562 -409.78958
45.06316 17.478685 -409.94205
38.358192 21.781359 -409.26776
39.861172 21.135176 -409.44144
40.455074 19.659073 -409.53174
40.279968 23.19655 -409.32965
41.953773 19.022486 -409.65149
41.777863 22.554045 -409.44714
42.389511 21.056086 -409.63135
43.884911 20.422121 -409.72092
39.673824 24.680035 -409.23334
40.015598 26.956108 -409.06406
40.336029 29.263315 -408.91574
41.521679 26.3111 -409.21176
42.094818 24.858013 -409.34109
38.338333 34.174042 -408.8147
39.754177 30.740433 -408.8685
39.863285 33.536358 -408.74271
40.456139 32.065548 -408.8092
34.146622 38.354416 -408.30557
35.671585 37.790974 -408.27789
37.171364 37.139545 -408.35941
37.752773 35.666233 -408.63803
37.591042 39.180611 -408.18039
32.564034 39.271999 -408.08862
32.202431 43.302521 -407.61838
32.78915 41.835159 -407.74252
34.283951 41.200375 -407.88007
34.885082 39.719883 -408.01425
34.225025 44.477127 -407.70422
34.817101 43.006233 -407.82779
36.404163 42.125744 -408.03534
37.010563 40.652962 -408.06256
36.225403 45.660362 -407.84686
36.827541 44.188702 -408.01822
31.211042 45.75172 -407.34375
31.144175 49.039154 -407.26166
31.737196 47.565987 -407.32892
32.725666 45.112164 -407.52991
33.235134 46.928185 -407.47244
33.357872 49.726494 -407.36627
34.729347 46.293823 -407.64636
34.846703 49.084801 -407.47339
35.445759 47.617496 -407.61618
28.469652 52.608402 -406.77286
29.053091 51.140469 -406.93707
29.639698 49.671406 -407.09988
30.08717 54.765182 -406.78241
30.68189 53.299263 -406.93549
31.258274 51.832447 -407.12537
31.859322 50.363846 -407.25034
32.299831 55.456547 -406.91745
32.895817 53.993023 -407.10825
33.47382 52.521149 -407.25104
26.837463 59.784866 -406.03427
27.417149 58.339367 -406.45807
27.992401 56.877861 -406.62534
28.58375 55.402752 -406.72403
29.038187 60.485039 -406.22113
29.61595 59.034157 -406.5809
30.216009 57.574894 -406.70517
30.800381 56.089676 -406.75641
31.32321 60.943539 -406.55682
31.922064 59.484894 -406.79797
32.514313 58.009872 -406.87531
69.463043 -61.458118 -413.3537
69.755905 -60.44611 -414.66803
70.673172 -61.505054 -413.04901
70.495758 -60.834175 -414.37943
71.270958 -60.434589 -415.23993
71.777588 -61.305531 -413.59244
72.342674 -59.743366 -415.87988
72.786812 -61.042828 -414.20108
72.888824 -61.15081 -413.00574
72.760315 -60.388432 -415.39853
73.810226 -60.699799 -414.7352
73.576363 -59.535362 -415.95221
74.007202 -60.829014 -413.8652
68.554924 -56.472324 -415.7663
69.637543 -59.669472 -415.30774
69.265427 -58.443069 -415.68271
70.046402 -57.058186 -415.73291
70.808144 -59.126701 -415.84467
70.346642 -54.727146 -415.78009
71.515373 -57.704872 -415.96588
71.917778 -58.795521 -416.11234
71.8097 -55.264599 -415.83151
72.446274 -56.893082 -416.03403
73.088234 -58.438519 -416.16666
73.897675 -57.385208 -416.16898
66.23307 -50.704582 -415.54623
66.865425 -52.335674 -415.53622
67.451118 -53.753235 -415.68362
67.687897 -51.207581 -415.65695
68.857086 -54.111889 -415.70538
68.290649 -49.630638 -415.71301
69.160912 -51.809326 -415.78128
69.799515 -50.294334 -415.82547
70.598618 -52.261185 -415.77722
70.270935 -48.412163 -415.82663
71.280426 -50.911308 -415.9133
72.062004 -52.851463 -415.85623
65.603607 -49.079056 -415.4574
65.205154 -45.065765 -415.33817
66.177147 -47.478691 -415.51978
66.654198 -45.566765 -415.49728
67.667358 -48.104679 -415.66495
67.110214 -43.639668 -415.24637
68.125793 -46.154045 -415.56992
68.622192 -44.275414 -415.37585
69.648712 -46.863407 -415.65048
70.075539 -44.834633 -415.50198
63.359966 -40.520027 -415.17227
64.168922 -42.476662 -415.03897
63.801945 -38.53476 -415.70087
64.874405 -41.150627 -415.07877
65.588615 -42.936592 -415.14893
65.19397 -38.908981 -415.58701
66.15654 -41.259109 -415.03568
66.587448 -39.306797 -415.41022
67.557739 -41.654808 -415.07434
68.090828 -39.897377 -415.16339
69.023621 -42.1632 -415.26871
61.295147 -35.342728 -414.63843
61.831436 -36.708118 -415.22195
62.389076 -38.126434 -415.60818
61.781464 -33.445526 -414.36404
63.323139 -37.34491 -415.62732
63.206322 -33.905468 -414.55014
63.743443 -35.275581 -414.97754
64.301994 -36.70005 -415.60681
64.709038 -37.717834 -415.82718
65.134308 -35.652973 -415.36771
65.707138 -37.116238 -415.87711
65.225426 -32.738068 -414.61218
65.755203 -34.067554 -414.8699
66.541336 -36.080593 -415.81979
67.020309 -37.282799 -415.92935
60.177891 -29.454813 -414.04364
61.122299 -31.780424 -414.25735
61.629997 -29.954039 -414.16888
62.161526 -28.254921 -414.0614
63.07288 -30.500069 -414.32419
63.755947 -32.169575 -414.5282
63.673794 -28.916178 -414.21268
65.110992 -29.376146 -414.41406
65.69809 -30.843765 -414.51385
59.602215 -28.025928 -413.9516
58.91626 -23.226866 -413.75806
59.522533 -24.722219 -413.81229
60.114063 -26.193914 -413.9007
61.58836 -26.805323 -414.01797
61.044891 -22.329494 -413.81906
61.714882 -24.0175 -413.96841
62.269306 -25.455761 -414.08997
63.830967 -26.17779 -414.25513
57.078709 -18.725374 -413.32349
57.717262 -20.23633 -413.43362
58.336388 -21.763342 -413.57419
57.721992 -17.1894 -413.49707
58.818233 -16.893795 -413.65131
59.250977 -17.825994 -413.54715
59.796684 -19.278746 -413.57462
60.455471 -20.844526 -413.69647
60.437691 -17.749605 -413.62598
61.239441 -16.741144 -413.76569
61.763687 -17.911249 -413.69489
62.317692 -19.361925 -413.77206
55.371178 -14.747669 -414.52954
55.882599 -15.871731 -413.68793
56.250202 -16.84181 -413.38962
56.596661 -14.706092 -414.99908
56.897861 -15.3466 -414.1926
57.307484 -16.255224 -413.71494
58.034477 -15.009405 -414.74268
58.430496 -15.931602 -414.02704
59.440029 -15.43192 -414.30359
59.261242 -14.819001 -415.05417
59.828865 -16.344786 -413.86029
60.275055 -14.3312 -415.65234
60.471897 -14.858725 -414.72299
60.859337 -15.764125 -414.06091
49.409096 3.4422665 -413.8139
49.164635 7.3221335 -411.16901
49.556004 6.1911755 -411.45029
50.032566 4.7926269 -412.50079
50.367977 4.2041569 -414.07449
50.416016 7.0732379 -411.57455
50.946869 5.6510868 -412.48996
50.952717 9.0082722 -411.18906
51.487366 7.6033263 -411.71207
52.037373 6.2485971 -412.62671
52.344707 8.6214237 -411.47018
52.847103 7.3501911 -412.12241
53.192924 6.4293451 -413.07294
53.062389 9.9483566 -411.25211
53.562801 8.6553793 -411.63162
54.111671 7.2786598 -412.55643
47.734818 13.8949 -410.47037
48.339573 12.407117 -410.52167
48.914421 10.957853 -410.65259
49.52911 9.4422579 -410.95886
50.333561 13.589645 -410.69794
50.969311 12.082649 -410.81848
51.551113 10.609985 -411.02255
45.681496 15.953705 -410.16953
46.233192 14.540081 -410.34875
46.956852 18.914278 -409.95496
47.585331 17.408443 -410.12189
48.153229 15.951977 -410.37302
49.674114 15.289828 -410.60312
48.793144 20.561903 -410.12704
49.366409 19.100761 -410.24442
49.973045 17.616447 -410.42093
43.593517 24.215672 -409.49658
44.162296 22.757164 -409.67853
45.616131 22.325129 -409.83856
46.181301 20.865944 -409.89203
46.024742 24.389273 -409.77423
47.598167 23.524639 -409.94577
48.222111 22.026421 -410.05396
48.21986 25.089939 -409.86383
41.818546 28.639425 -409.07742
43.317825 27.993338 -409.23669
43.921795 26.513729 -409.37897
44.054344 29.308687 -409.26572
45.397285 25.890223 -409.5679
45.526371 28.680166 -409.48291
46.13921 27.194855 -409.55539
