ply
format ascii 1.0
comment PCL generated
element vertex 1507
property float x
property float y
property float z
element camera 0
property float view_px
property float view_py
property float view_pz
property float x_axisx
property float x_axisy
property float x_axisz
property float y_axisx
property float y_axisy
property float y_axisz
property float z_axisx
property float z_axisy
property float z_axisz
property float focal
property float scalex
property float scaley
property float centerx
property float centery
property int viewportx
property int viewporty
property float k1
property float k2
end_header
62.535355 20.611135 -410.92197
60.998692 18.198751 -410.97882
62.433578 17.784941 -411.11874
63.123425 19.136425 -411.10513
61.94521 22.082279 -410.77362
18.098991 -53.00832 -411.172
14.694544 -71.66114 -410.39737
15.111584 -72.594002 -410.34171
15.498596 -70.63678 -410.44516
16.10643 -72.080513 -410.49725
27.28487 32.244164 -375.31628
102.59985 -35.390247 -417.46146
-31.137522 35.211361 -401.3212
-29.854082 34.997749 -401.50192
20.975435 -47.657021 -410.61746
21.657383 -46.323135 -410.74716
22.234426 -47.753662 -410.91595
23.05571 -46.73946 -410.9668
44.581158 -43.056328 -413.64728
45.629486 -42.56638 -413.73901
46.097958 -43.771576 -413.95755
43.048141 -63.523315 -413.15759
43.455482 -64.519218 -413.17297
44.422802 -63.827972 -413.3819
108.52518 -27.637743 -417.88361
44.929714 -3.8609736 -411.50082
77.80233 51.395611 -423.29199
33.249607 28.584209 -376.76675
83.658325 41.613575 -415.77267
97.235497 10.12609 -430.34256
-7.6695271 -45.306351 -422.4798
89.348724 -49.738552 -416.33325
-5.8502617 -43.270393 -421.4827
65.917564 -12.797163 -414.29904
23.821623 24.053518 -374.25238
2.9211628 -20.297577 -421.6178
3.9307566 -19.723557 -421.80157
70.007553 -10.406568 -413.86731
70.381271 -11.417754 -413.88968
84.649673 -56.480686 -416.49365
33.461987 -66.274323 -412.60663
55.881527 9.1416063 -411.72495
56.73465 10.133167 -411.51132
85.4207 -30.128933 -416.73065
86.324768 -29.262806 -416.48871
75.805336 -3.0825667 -413.63339
77.266731 -3.5325031 -413.77423
78.732201 -4.1233201 -414.00085
76.136063 -0.76595062 -413.4888
77.668228 -1.4305959 -413.68936
79.341133 38.805328 -411.90958
71.820709 -55.26556 -415.73776
72.457367 -56.893738 -415.94138
58.441761 -15.924385 -413.90222
-27.209131 34.535595 -402.51321
97.541458 -3.9808209 -429.68723
95.170067 -26.09403 -416.87527
43.818398 -53.205269 -413.14105
58.246464 -46.204765 -414.66412
59.702602 -46.793457 -414.90259
60.309795 -45.21727 -414.83041
41.904274 -63.633999 -412.97916
31.477907 24.919806 -375.2764
45.225124 -10.697904 -411.71042
44.670071 -9.4283161 -411.59109
45.88184 -9.376235 -411.87167
86.394165 30.690395 -413.57117
112.77764 -35.848682 -418.49069
72.564957 71.727043 -425.25479
93.42765 -49.083683 -399.36951
7.7667837 -27.719015 -408.97034
5.9633121 -35.345219 -408.92276
66.361198 -59.092957 -415.30655
-10.059861 31.204773 -417.14371
-8.8073101 30.966776 -417.24139
10.287239 -33.469849 -408.91885
9.4971294 -31.520266 -408.79422
10.895725 -31.915424 -408.9101
94.675095 -42.265411 -398.76599
94.112282 -36.065044 -416.59921
64.204178 -14.719741 -414.05627
-15.211216 -4.2901559 -404.94861
84.320282 -27.451809 -415.60513
41.164501 5.5478687 -410.29816
38.528011 9.0941715 -409.69589
39.09428 7.634326 -409.81949
40.615234 6.9708676 -410.05487
38.891499 5.0779581 -410.02905
37.385448 5.7472615 -409.76678
36.797001 7.2223172 -409.56891
37.751255 -47.480625 -412.66132
38.399464 -48.931232 -412.32269
39.19437 -47.880196 -412.51791
25.051153 29.581364 -374.27502
55.133999 -19.945063 -413.11746
55.73563 -18.340071 -413.0784
57.091057 -18.726557 -413.19949
-19.61335 37.333233 -402.94138
-22.041954 37.285748 -402.32236
39.620449 -42.879181 -412.56201
84.393517 29.258844 -412.98795
82.348785 28.060322 -412.66156
83.837585 27.425581 -412.92059
41.36377 -56.306225 -412.94708
39.889519 -55.682354 -412.67642
30.075483 30.827078 -375.49591
44.126389 -4.9081545 -411.15439
42.464088 -3.7722461 -410.7066
97.13765 2.8678048 -427.6763
46.023712 -6.5982537 -412.08655
93.099937 16.148115 -427.22958
107.92805 -19.202473 -420.29816
92.213478 -53.593945 -416.6615
70.984444 -3.7805548 -413.57391
71.410629 -4.7415481 -413.57944
69.243217 -8.4751358 -414.10544
45.92725 6.0934596 -410.62592
46.473328 4.6674862 -410.78085
-11.087177 33.650936 -416.74637
4.6635318 -23.180958 -420.13699
70.544006 -5.5463724 -413.76596
-3.2015164 -46.303749 -408.061
-2.0638609 -45.951576 -408.17065
-1.6440899 -46.869602 -408.19263
21.859903 -70.914444 -410.823
57.039715 -49.46471 -415.1199
71.381111 67.381134 -422.2092
82.34095 -16.192236 -414.86395
84.558533 -15.47341 -414.96069
83.333511 -12.471066 -414.78296
83.966743 -13.996861 -414.86258
79.663872 -12.733989 -414.59692
81.151253 -13.216195 -414.69901
81.676071 -14.63017 -414.75214
105.43974 -26.616627 -417.7962
6.271348 -17.746443 -408.45551
13.977009 -73.016083 -410.17233
-18.521446 37.635262 -403.10797
53.207085 6.4181981 -412.93707
42.856449 -41.682819 -412.68106
43.110771 -39.231998 -412.50687
42.540184 -37.820007 -412.49911
49.895012 55.457829 -408.77008
-10.217026 -16.084 -419.59769
-8.7861681 -16.487593 -419.85019
29.633913 29.134243 -374.86093
30.908686 26.06584 -374.94321
107.12338 -22.545803 -418.37137
98.689606 2.6754484 -428.17032
84.539001 39.061249 -415.06082
109.45478 -23.275639 -420.84949
4.3146048 -29.999319 -421.50952
90.353951 -39.39481 -416.41916
96.136101 -39.839096 -399.01749
66.161049 -53.524483 -415.55045
66.546516 -54.617401 -415.70096
23.773609 29.900131 -374.40573
5.5468435 -40.104694 -408.63092
6.0371847 -41.309383 -408.74103
5.1178026 -39.149082 -408.64136
73.908745 -57.38559 -416.07318
74.366943 -58.619122 -416.08926
73.09922 -58.434643 -416.07083
96.916214 -38.869125 -399.11438
58.497921 8.8504257 -412.16412
54.438976 9.6410837 -411.38373
55.258846 10.689445 -411.30215
53.782463 11.279847 -411.1127
18.482117 -35.459873 -410.0697
15.476408 -34.15004 -409.72736
16.068214 -35.593285 -409.80728
16.599096 -30.798857 -409.6525
17.207462 -32.34557 -409.86517
17.871899 -33.966011 -410.01895
18.987144 -30.609325 -409.95941
19.595654 -32.138912 -410.17572
20.182674 -33.57159 -410.23599
105.86112 -52.09478 -399.33298
106.4845 -53.545055 -399.34262
107.93022 -54.375198 -399.54626
108.59543 -52.896175 -399.64297
50.631283 -42.700211 -414.18774
51.106541 -43.831512 -413.86032
48.725517 -44.016262 -413.76999
48.725113 -44.017548 -413.77939
28.460354 -69.025528 -411.88577
44.538609 -39.705807 -412.71378
45.070004 -41.10424 -413.06775
-18.189449 35.392784 -416.17114
-17.757452 34.362885 -416.11353
24.706875 -17.961348 -409.4249
26.221992 -18.629505 -409.608
28.340067 29.797182 -374.72516
68.08886 72.56562 -421.30606
71.52166 70.237541 -421.99771
94.006996 13.856961 -427.23001
87.749016 31.382467 -416.02826
67.14872 -56.078079 -415.74948
89.533333 -40.477966 -416.47708
22.470499 30.00359 -374.61484
64.555351 -52.644665 -415.49622
72.399406 -13.329452 -414.28085
71.811081 -11.852842 -414.04977
72.386818 -10.189502 -413.86374
-6.6794577 -40.958862 -421.54068
-5.2118635 -41.346699 -421.64487
96.437294 -35.596046 -416.56766
95.945236 -34.410492 -416.78363
74.783142 -59.4664 -415.83084
-15.833506 -2.575135 -404.33066
-14.330753 -3.1749837 -404.56152
-14.911269 -1.7213156 -404.36661
-10.629983 32.347633 -416.9136
-11.908032 32.571487 -416.77985
31.972157 0.73944247 -409.7045
33.461452 3.1664307 -409.73151
34.044487 1.707885 -409.85419
32.265884 -3.0334775 -409.81769
31.667252 -1.5534441 -409.70667
34.040363 -1.3478476 -409.92416
34.642365 -2.8356185 -410.07541
36.745163 -1.9221349 -410.28949
33.460796 0.10904545 -409.84637
35.542248 1.0632832 -409.95282
36.158718 -0.45095593 -410.12482
101.46216 -50.34576 -399.13632
104.38811 -51.637184 -399.30518
102.30814 -49.049377 -399.26596
103.75668 -49.821472 -399.32132
98.63356 -40.093441 -399.00073
48.695118 -40.975574 -413.8909
50.135612 -41.522549 -414.36792
49.197952 -42.280735 -414.31693
87.330147 17.572851 -425.35132
86.50544 16.235405 -425.5025
-2.6123049 -22.443056 -421.16269
-1.4210579 -22.164165 -421.23416
85.008087 30.845026 -413.06186
-4.9519596 -22.532028 -419.13846
48.116787 -8.8648424 -414.57648
87.127449 32.871132 -416.1344
93.220497 -46.844402 -399.16028
95.076988 -43.304646 -398.6958
61.640118 10.36319 -411.94476
62.042336 9.3471413 -412.03711
62.942471 10.242925 -411.99826
34.308159 41.184357 -407.58151
34.259464 44.445461 -407.40753
34.845261 42.994633 -407.52902
32.753334 45.099766 -407.23029
27.535561 42.628593 -406.89868
29.019979 42.004238 -407.0961
30.513517 41.384312 -407.26596
31.103523 39.894775 -407.43362
30.73308 43.923161 -407.05112
32.59164 39.245731 -407.71301
32.235474 43.282478 -407.24081
32.820892 41.810902 -407.36618
1.6475617 -26.518734 -421.72101
3.1043663 -26.979486 -421.91232
83.634789 -56.894798 -416.39951
11.041573 -71.959366 -410.17642
12.45587 -72.359879 -410.32278
12.849376 -73.336052 -410.22958
58.334747 -49.588581 -415.27969
33.60207 -46.395332 -412.30017
36.576668 -13.815126 -410.82385
38.227554 -11.721869 -410.89481
35.108788 -13.222768 -410.45456
33.943371 -10.257494 -410.21066
34.524345 -11.711505 -410.29419
34.654114 -8.9431 -410.25708
36.116535 -9.5667982 -410.5694
36.704292 -11.029083 -410.61011
71.456589 36.092316 -411.08362
72.881485 35.695908 -411.12338
74.33342 35.312229 -411.25491
73.56562 33.973412 -411.26981
25.848322 -68.724083 -411.51663
104.10842 -22.911064 -417.62421
22.55802 -6.0792165 -407.61414
21.722504 -4.4252486 -407.63046
21.937119 -4.5600338 -407.52411
23.568029 -2.8999422 -408.84244
25.079674 -0.5205313 -408.83875
25.637878 -1.9180579 -409.00677
86.721657 29.67738 -413.59302
110.44621 -29.334219 -418.33749
80.455452 52.114132 -427.32184
70.56234 -2.4793649 -413.55328
71.563438 -1.8859982 -413.29156
6.5869579 -36.802799 -408.75656
7.0356302 -37.761078 -408.75592
8.068038 -37.152027 -408.82339
24.552149 22.248102 -374.66776
73.77092 -7.3592143 -413.80048
72.337387 -6.9313812 -413.65762
8.4570408 -32.1255 -408.74274
96.290161 -52.279774 -398.97232
38.362564 -66.132683 -412.85019
-14.015881 -6.903162 -418.89029
-13.598786 -7.849865 -419.10419
86.131462 -25.664169 -415.43552
86.684998 -27.078718 -415.66202
84.620827 -25.102993 -415.3866
-7.4305468 -10.461734 -420.04428
-5.9743214 -10.83001 -420.181
109.07908 -29.349026 -417.88763
107.7465 -28.97077 -417.76178
97.333954 -34.782509 -416.71002
96.812775 -33.351261 -416.74072
51.502384 7.595191 -411.5748
24.761103 -5.8459673 -409.02164
93.418419 12.273671 -426.88599
91.251274 11.297817 -426.51761
91.985329 12.679969 -426.60486
2.6154206 -42.084267 -408.45425
3.0148506 -43.051537 -408.43503
4.3139334 -43.213482 -408.64014
105.13915 -16.096537 -417.44373
104.82837 -15.095282 -417.4751
111.77219 -32.978168 -418.22714
79.89325 53.339321 -426.46295
86.702637 -52.119774 -416.64169
88.152344 -52.605427 -416.77521
4.590764 -27.75186 -421.98758
-4.7956896 34.282822 -405.08432
19.00691 -3.5486138 -407.33353
34.562981 -48.697109 -412.23169
35.980831 -49.090649 -412.17392
85.129707 -57.728394 -416.086
29.638603 -68.854141 -411.99408
99.134193 -56.293289 -401.60562
-16.121433 1.1561853 -404.2002
-15.518623 -0.27878666 -404.31717
-14.371187 3.0913334 -404.28256
-13.775784 1.6432344 -404.38464
58.676834 40.32988 -421.50952
59.299572 38.811794 -421.55371
60.797287 38.16716 -421.77914
60.459778 42.307022 -421.6123
60.994976 40.78981 -421.75482
62.272141 37.771561 -422.01022
58.092144 41.839256 -421.36469
62.658417 40.139343 -421.86343
62.567287 43.524273 -421.73535
61.106472 43.92458 -421.5459
72.614685 44.64101 -422.77295
74.089264 43.983673 -423.0181
75.579475 43.860218 -423.21918
32.068249 -65.964088 -412.58884
32.857075 -64.847076 -412.69653
46.858028 -39.350437 -413.03979
48.183132 -39.615757 -413.24545
48.622604 -37.615639 -413.11185
24.028437 5.2317858 -408.16345
21.95002 4.2987418 -407.95465
22.514101 2.8646152 -408.05701
23.455202 6.674798 -408.02435
22.967079 -1.3847728 -408.59335
84.445251 35.12151 -412.97501
80.452881 47.670803 -424.23502
79.369011 54.588833 -425.92334
64.762695 -56.727654 -416.40689
69.558037 -9.4500675 -413.92865
69.219963 0.61286545 -413.49225
8.2537651 -19.251345 -408.40649
9.4950771 -19.552187 -408.41095
65.810814 -15.59084 -413.91791
66.316116 -16.84095 -413.99194
65.413757 -14.610628 -414.01712
60.867561 -15.756698 -413.93567
89.381516 -27.481779 -416.2746
29.776197 -15.290348 -410.05954
31.216316 -15.789277 -410.20609
28.625114 -12.392002 -409.75195
30.093212 -12.985526 -409.90723
33.00423 -14.092 -410.28271
30.70962 -11.467792 -409.95889
31.528257 -13.479181 -410.09497
32.197826 -12.107431 -410.14905
80.08799 -32.504284 -416.51871
78.791092 -32.370918 -416.43164
79.575859 -31.223825 -416.2258
103.82238 -38.005966 -399.16711
98.519409 -3.4633076 -428.95377
83.574608 7.3320584 -425.64764
84.327171 5.5302396 -425.94168
85.673096 8.5392323 -425.90802
86.344612 7.0002136 -426.06085
-9.7995119 27.318918 -417.17578
47.433155 -6.8582206 -414.23712
46.771915 -6.3039298 -412.89337
108.02296 -23.987675 -418.84979
66.506668 -60.446552 -415.49939
6.5720901 -22.092512 -409.2872
65.708717 -57.934826 -415.96133
-0.16818237 -7.560811 -406.54391
0.84348464 -7.0004244 -406.53058
69.009651 4.456439 -412.63818
67.873665 4.3393812 -412.6366
-13.539418 36.269508 -417.44464
-13.160587 35.543388 -416.79813
92.09761 -37.452576 -416.44019
82.746826 -57.724628 -416.3082
25.839933 21.871706 -374.85187
27.577154 -27.985332 -409.28784
44.520824 49.890854 -408.21194
45.243446 51.220387 -408.18878
46.744686 50.584923 -408.32794
43.737656 51.853645 -407.99753
64.537048 34.533798 -410.32431
63.036148 34.857903 -410.4194
64.06134 35.850407 -410.89368
104.73845 -37.034286 -399.74585
105.96974 -36.999561 -400.19281
106.00668 -37.896782 -399.57571
-23.426956 37.600716 -402.03598
-22.635445 38.684376 -402.10699
53.530468 59.417622 -420.07858
55.075882 59.049854 -420.20105
50.454414 53.699574 -408.96649
106.74612 -19.84903 -417.88623
104.23447 -13.322812 -417.30313
108.4464 -20.496897 -420.78079
4.2896404 -20.686998 -421.60284
45.875122 -64.389122 -413.93835
-5.2628098 35.484539 -404.70227
65.087585 -61.260872 -424.52682
68.038452 -11.863873 -413.97662
98.858315 -37.441448 -400.16306
59.839203 -16.340191 -413.73819
-14.124855 -9.6582499 -419.17514
-13.534621 -11.211328 -419.27127
68.490089 -34.684669 -415.59665
68.930168 -35.836697 -415.95453
102.17564 -24.545933 -417.71832
101.15145 -25.331509 -417.66873
-17.22303 33.102638 -416.06305
-16.62121 31.628977 -416.1387
71.527931 -57.704899 -415.86816
71.929787 -58.793339 -416.01541
25.617304 -46.938789 -411.3002
30.760782 -32.976589 -410.53033
32.786369 -31.818777 -410.65454
-9.3792353 26.315958 -417.14502
79.182663 50.446636 -423.82843
46.848362 -8.8367052 -412.44073
96.596832 11.657715 -430.19617
88.785828 -48.210789 -416.38235
21.938089 28.654882 -374.40555
90.545685 -52.396458 -416.72235
88.93261 -38.951042 -416.40475
96.888657 -50.733662 -398.97565
60.44664 -17.748766 -413.50723
61.249504 -16.738928 -413.647
61.774979 -17.912174 -413.57693
81.913361 -58.714878 -415.93893
93.242279 -31.004938 -416.47845
93.831764 -32.431808 -416.29303
94.689255 -31.379524 -416.38889
95.318626 -32.891308 -416.51239
-11.29958 -7.2846723 -419.03864
-10.898902 -8.1411076 -419.35028
-0.98551106 6.6728697 -405.82739
-0.38521779 5.1956511 -405.94275
1.6976616 3.1041536 -406.24954
1.0866706 4.6024017 -406.18155
1.197443 7.3552599 -406.1886
2.6961379 6.6977491 -406.34113
3.296181 5.2400084 -406.36273
3.2017491 8.5211582 -406.32916
4.7865429 4.623455 -406.56097
4.6979256 7.8504701 -406.4978
5.2873621 6.4352293 -406.58868
0.61468714 8.7999573 -405.99136
2.6219947 9.9660625 -406.10901
95.298859 -29.849857 -416.64758
96.14563 -28.541552 -417.0914
102.60442 -37.864433 -399.23032
48.310467 6.3030005 -410.95599
27.472746 -45.450951 -411.37256
28.812708 -45.767227 -411.67416
30.10425 -45.876938 -411.97977
48.991817 -13.979547 -412.28949
45.868034 -58.150204 -414.75146
-5.8622618 -20.330225 -418.98209
81.222008 50.023933 -426.77621
94.428413 -50.827263 -399.30243
1.6942722 -9.2318325 -406.99753
7.7628765 -18.00264 -408.28409
9.9479179 -17.434561 -408.33408
1.0868695 -34.633961 -421.95477
-1.812526 -33.827667 -421.62589
-1.2940648 -32.062332 -421.63635
-0.36299956 -34.237434 -421.79648
0.27006292 -32.595245 -421.79645
99.038513 -38.127274 -399.22656
105.0239 -35.235733 -417.10068
58.089539 9.8754807 -411.70749
58.936192 10.8641 -411.54468
71.36219 29.96574 -411.06046
69.267212 32.08717 -410.8031
69.892868 30.60795 -410.93906
71.603653 32.536743 -411.11374
100.72044 -42.343548 -398.90485
102.2998 -43.065952 -398.90961
101.49164 -44.392658 -398.88458
87.371208 -57.317989 -416.07339
87.970749 -55.336697 -416.83701
102.64526 -22.784338 -417.23209
13.541497 43.521095 -405.68695
15.022159 42.898403 -405.88898
15.609517 41.422485 -406.194
15.644082 44.447491 -405.84085
17.124136 43.827076 -406.03717
17.701954 42.370754 -406.30887
41.960735 -57.782528 -413.05243
39.916183 -58.716377 -412.30331
88.190216 25.480223 -413.92169
70.040527 73.71785 -421.9509
112.64156 -31.034941 -421.25989
70.854523 -6.5799346 -413.74289
-8.4204597 37.262985 -404.22086
22.867773 26.351307 -374.11633
97.35955 -51.976177 -398.85156
97.712677 -52.865326 -398.75284
66.827133 -58.357677 -415.7193
37.075676 -66.054375 -412.9328
5.4103813 -52.158352 -408.931
6.1947041 -50.83046 -408.99222
6.8067589 -52.507534 -409.22467
4.6842108 -50.259441 -408.85214
59.259506 -52.436848 -422.75177
98.20237 -5.0427108 -416.30484
96.711304 -4.3952708 -416.19058
97.424652 -6.3715434 -416.16754
28.033937 -68.163849 -412.07642
52.158665 -40.374252 -414.41815
52.401016 -37.829727 -413.60898
52.870434 -39.054062 -414.07874
4.7459831 -36.14724 -409.40555
4.7176361 -35.326111 -409.74756
72.623062 51.17485 -422.42422
71.952408 52.687065 -422.21115
-4.4173489 -20.818922 -420.55862
76.892288 56.221859 -423.42761
110.43131 -25.502064 -420.87955
93.459808 -47.782795 -399.08276
70.530182 6.957303 -412.64801
69.908669 5.3754711 -412.67654
70.463379 3.9660468 -412.85205
7.6128531 -21.197699 -408.65979
8.8167953 -20.768095 -408.47403
88.672859 -32.116318 -416.30533
23.683155 -69.31945 -411.15396
84.177612 -58.348709 -415.73651
14.461812 -53.216408 -410.8288
13.172886 -53.183167 -410.6702
13.967223 -51.856457 -410.46396
28.343374 -5.5977807 -409.49191
30.023506 -3.6288958 -409.53522
30.643082 -5.1504874 -409.65103
28.542149 -3.0065291 -409.34915
51.190266 -22.497171 -412.92978
51.742455 -23.908253 -413.0368
51.681149 -20.643024 -412.85675
53.176025 -21.286392 -413.01852
53.794899 -22.811871 -413.16156
24.968807 -69.493782 -411.22711
-21.129259 38.066719 -402.34134
33.345818 -33.234589 -410.77963
86.346771 -6.5918727 -426.12909
87.578598 27.714676 -413.79959
104.31725 -14.355391 -417.24289
94.983017 15.762295 -430.09637
94.121872 -46.760857 -398.80682
-3.9377782 -12.773861 -420.55945
-3.4282739 -14.012402 -420.65845
-2.5879874 -12.918404 -420.65591
19.800323 -26.549349 -409.99515
21.491877 -24.58988 -410.05414
22.101744 -26.104639 -410.14691
2.8847332 -45.905037 -408.61069
2.2796199 -44.411335 -408.41501
68.023819 -14.899199 -414.00317
66.339828 -13.779489 -414.01871
67.537071 -13.690521 -413.97287
55.853596 -49.670475 -415.16119
-20.676746 3.2986376 -403.31744
-18.581505 1.2038783 -403.60602
-19.147842 2.6923783 -403.43057
-18.858292 4.9587035 -403.54089
-17.328869 4.3500504 -403.61139
-16.741577 2.8922117 -403.72488
75.660149 -33.911488 -416.383
76.136971 -35.107056 -416.25418
75.493011 -36.630478 -415.82776
74.740509 -34.722271 -416.29446
70.821159 -59.122356 -415.74612
38.300556 -42.597549 -412.14761
38.891525 -41.009033 -412.11865
83.237228 22.516788 -413.03418
78.282936 22.129955 -412.42288
80.192612 23.806574 -412.5528
81.665314 23.401432 -412.83279
79.930183 21.230766 -412.69394
81.391891 20.831482 -412.91937
-9.4237537 -14.954527 -419.95517
-7.9766502 -15.450816 -420.15213
47.172039 -9.83008 -412.42758
2.7167895 -8.5998449 -406.92599
3.7226775 -8.0738897 -407.05167
3.1145082 -6.5607867 -406.96484
90.888306 -53.246193 -416.84143
-6.5264206 -34.996292 -421.38165
-5.0451269 -35.333584 -421.4552
-3.6051109 -35.815136 -421.52609
-1.203213 -45.172802 -408.2243
59.843292 -34.790333 -414.19092
61.308022 -35.348064 -414.52386
61.786465 -33.448509 -414.25174
59.296852 -33.397041 -414.05762
9.4406881 -74.051353 -409.82932
10.238277 -73.074394 -410.07877
10.747967 -74.225998 -410.05603
28.607925 -66.555161 -412.20953
30.04645 -67.022072 -412.39297
-24.33486 36.818272 -402.08273
41.993225 -8.8509455 -411.1933
41.428497 -7.4266591 -411.04398
29.656948 -21.1042 -410.2894
31.934175 -20.686314 -410.54752
103.65417 -12.602374 -417.0517
81.781586 48.791496 -427.5527
3.1099339 -9.5928926 -407.0448
3.9365399 -25.88431 -422.01538
7.9062462 -33.636745 -408.68857
8.9685068 -33.336742 -408.72385
0.90265924 -43.962727 -408.33478
-6.6984663 -0.57085162 -405.28024
-8.7924213 1.5174471 -405.00644
-8.1796608 0.099234581 -405.08871
-6.6692533 2.465502 -405.14923
-6.0841656 0.97562999 -405.24316
45.643501 -27.168467 -412.5589
43.66518 -25.311243 -412.29156
44.215034 -26.706818 -412.35529
46.147404 -25.360838 -412.59732
47.073013 -27.632223 -412.7605
47.663105 -26.034998 -412.73807
49.116177 -26.596745 -412.89651
48.554329 -28.259775 -412.91605
43.62653 -28.296022 -412.30557
45.051823 -28.75041 -412.51645
45.525837 -23.831154 -412.45865
77.623329 -35.734741 -416.08716
78.418083 -37.678043 -415.86673
77.004929 -37.270088 -415.7887
79.134163 -36.359283 -415.9512
96.669342 -2.8856301 -427.89758
98.636307 -0.49585891 -428.07733
96.836922 -37.954109 -404.64362
32.189102 28.741535 -375.90891
97.91124 8.5693874 -431.12393
64.150223 -51.758904 -415.35107
5.6449041 -16.299269 -408.43353
4.172184 -39.966988 -408.57053
4.5952983 -40.95879 -408.5123
-19.031477 39.049282 -402.60168
65.138199 26.657246 -410.60907
68.543686 24.398705 -410.98169
63.789242 23.750221 -410.69675
64.332298 22.309772 -410.8277
64.938164 20.811329 -410.99524
65.826836 24.932913 -410.80206
66.426895 23.447535 -410.87198
67.007057 21.98562 -411.00589
63.198471 25.227375 -410.56445
64.332024 22.310152 -410.83252
53.855476 -41.50132 -414.71039
51.824249 -42.61097 -414.43454
53.226856 -42.987373 -414.34595
-15.98554 -8.2216206 -418.91284
-15.580538 -9.2603693 -419.03342
23.381735 33.399681 -375.93073
34.480793 -39.042553 -411.13126
94.881638 12.118195 -427.384
100.52029 1.9210427 -430.80103
-2.8673508 26.077757 -417.35974
16.825087 -25.267368 -409.52496
18.301399 -25.88092 -409.76508
20.001535 -23.963673 -409.83636
17.098007 -22.891933 -409.54327
18.521114 -23.379877 -409.68494
85.954201 -34.597321 -416.03329
54.044006 -48.024551 -414.26535
52.695251 -47.773151 -414.09976
45.13213 48.416199 -408.25134
46.63348 47.778843 -408.4068
42.978752 47.474297 -408.15091
44.510075 46.841667 -408.27209
82.942474 -55.113754 -416.46613
84.351036 -52.494102 -416.40985
82.299805 -53.54298 -416.38095
47.747841 13.890569 -410.32779
48.352798 12.402755 -410.38013
48.927853 10.952956 -410.51212
50.346729 13.58557 -410.55804
50.982639 12.078415 -410.6796
49.481461 -57.073269 -423.95374
50.740707 -57.137585 -424.12616
-4.6979933 -17.221397 -420.67377
-3.8585393 -16.156593 -420.71274
105.216 -12.409482 -419.65222
68.948959 1.6173611 -413.10651
80.568756 -8.7842922 -414.24854
82.417961 -7.157824 -414.45047
81.224228 -10.335658 -414.51437
81.879066 -11.889439 -414.68552
83.269974 -9.362052 -414.63657
83.976852 -10.911563 -414.78964
79.101639 -11.284637 -414.49442
70.429558 -14.698393 -414.15936
68.555222 -13.072608 -413.94308
69.874641 -13.268012 -414.01511
44.716389 -37.128876 -412.79932
46.199017 -37.752701 -412.9614
44.120979 -35.648411 -412.68042
45.916874 -33.990582 -412.84406
46.55801 -35.547321 -412.89413
48.008389 -36.11105 -413.06778
34.036736 57.375923 -406.85904
33.497276 61.860558 -406.36661
34.060062 60.42173 -406.76413
34.637531 58.945934 -406.90424
36.139027 58.311863 -407.02148
35.691742 62.568153 -406.56726
36.27523 61.12167 -406.94913
36.880688 59.656437 -407.04553
20.825314 -65.536018 -411.14041
21.429684 -66.981377 -411.17667
22.952257 -67.601173 -411.10538
100.53329 -23.772608 -417.13876
81.99749 7.8054743 -425.13739
13.720106 15.536105 -406.59198
13.123143 17.011065 -406.4783
11.712208 17.652351 -405.73187
103.89782 -8.9436302 -420.16306
-3.3255537 -5.7061763 -406.13376
-2.6330442 -4.500104 -405.98489
-2.1554937 -5.7486043 -406.15234
74.403236 -12.109648 -414.12766
74.35865 -8.8404102 -413.78018
73.845665 -10.662996 -413.8826
75.852577 -9.4572458 -413.78644
76.507561 -11.02976 -414.03366
73.843063 -10.68356 -413.78162
76.52874 -11.057472 -413.71906
63.812588 -38.534267 -415.5867
65.20253 -38.909237 -415.47412
23.602882 -48.16124 -411.38657
42.581558 17.516607 -409.61295
44.488766 18.944683 -409.63654
43.898487 20.417313 -409.56686
39.875324 21.129955 -409.27994
40.46925 19.654007 -409.37125
41.969456 19.010084 -409.49582
41.79203 22.548508 -409.28659
42.403805 21.050995 -409.47183
62.773117 -42.058788 -414.8194
62.311172 -44.018501 -414.9321
37.626331 -44.077511 -412.44547
100.89001 -34.481251 -417.13559
100.49146 -33.08379 -416.99173
101.91603 -33.496162 -417.21283
99.600372 -34.337009 -416.91092
-14.583757 -14.93289 -419.16803
-13.849893 -13.548377 -419.21576
-13.115323 -15.257174 -419.34232
-11.661056 -15.670975 -419.35086
-11.469721 -13.145749 -419.48395
105.68146 -13.664721 -419.63947
-3.8760879 35.072861 -404.74179
-2.9350162 35.920692 -404.7244
36.583828 -58.833656 -412.89844
24.513496 28.113945 -374.1022
25.897839 27.522837 -374.13199
24.358498 -46.909943 -411.1189
24.967592 -45.353088 -411.0802
23.469393 -44.736656 -411.02347
42.781773 44.922318 -408.30328
43.360218 43.451748 -408.39413
41.114017 39.718613 -408.3515
41.717739 41.284695 -408.40009
43.323162 40.403671 -408.55005
43.96521 41.979446 -408.55997
40.552376 44.23542 -408.14743
41.268005 45.561478 -408.13046
39.020699 41.827293 -408.1485
41.13797 42.763447 -408.28299
22.449327 -69.420067 -411.08603
106.13998 -21.848278 -417.76981
-6.8128767 16.980959 -417.41959
-7.4537096 18.501829 -417.27048
78.595604 42.193798 -423.4202
109.8884 -23.830051 -421.8414
69.912064 8.4798832 -412.43115
68.043266 13.147606 -412.02478
69.546173 12.513692 -412.10556
67.854668 10.522432 -412.13373
69.345467 9.9165115 -412.26929
6.8226051 -19.252979 -408.57019
94.101089 3.9354761 -427.26233
90.411385 3.3777852 -426.88547
91.871956 2.9689043 -427.01865
92.488976 1.438185 -427.12128
94.772369 2.3850524 -427.39941
84.840523 -28.724228 -416.09937
53.531609 27.505663 -410.07434
54.184383 25.803478 -410.11856
50.079971 29.798819 -409.60342
51.541885 29.380596 -409.75732
52.06953 27.931355 -409.92661
53.307068 31.080004 -409.7738
53.940693 29.57443 -409.91583
39.612934 -51.973263 -412.60022
38.977077 -50.387314 -412.45514
27.42981 -48.643444 -412.30588
28.346533 -47.820885 -412.27289
57.214878 56.882149 -420.47806
57.958725 55.129929 -420.76837
57.749733 58.756165 -420.46082
58.658016 56.491806 -420.71979
58.539852 53.617184 -420.88611
56.494884 55.523315 -420.5589
26.708031 -67.947479 -411.82367
110.96098 -26.747143 -420.95798
62.548454 8.2166443 -412.19727
63.450951 8.9299688 -411.99658
-1.7284977 39.019421 -404.52359
-1.1550992 37.558403 -404.67776
0.33283085 36.919819 -404.80942
79.667946 -34.569172 -416.18292
-11.11788 -1.9702561 -404.85425
-10.398186 -0.58778524 -404.90594
37.817093 -7.7103748 -410.97192
38.402134 -9.1614943 -411.04138
39.901501 -9.793725 -411.06894
40.005585 -6.94029 -410.92331
38.510777 -6.3345041 -410.81339
3.9783137 -57.912769 -409.61584
5.4189768 -58.286724 -409.53339
6.0262241 -59.75721 -409.36728
-24.898491 32.975918 -415.4303
-25.456703 34.455673 -415.11713
-22.59882 33.69091 -415.58484
-21.949942 32.19767 -415.6636
-23.168118 35.176723 -415.27011
52.399826 -54.996117 -424.29636
52.886173 -56.215508 -424.31717
15.327353 17.688906 -406.72586
113.9427 -34.304249 -421.46249
23.241016 22.598003 -374.58298
4.6713133 -23.805387 -420.99509
-8.4101286 -36.663769 -421.22354
-6.9677687 -37.154633 -421.36597
-5.483736 -37.45554 -421.45908
79.070633 -26.852139 -415.26627
77.608467 -29.449955 -415.35046
78.446564 -28.414356 -415.29663
76.992401 -27.865738 -415.29495
92.012756 -34.114506 -416.18475
93.455704 -34.737705 -416.50336
9.427331 -43.745155 -409.25961
8.8375731 -42.162216 -409.14301
11.947469 -43.686279 -409.49829
10.654071 -40.613064 -409.259
11.349559 -42.223991 -409.40604
96.775482 -23.987406 -416.48605
97.559196 -22.714046 -416.3537
96.085381 -22.103895 -416.19504
95.486 -23.877277 -416.20633
53.626259 56.314301 -420.30637
55.714008 57.278603 -420.33743
54.202389 57.932896 -420.23419
53.051102 57.571033 -420.11664
54.945057 55.906857 -420.42389
20.241533 2.4385462 -407.63062
18.781208 3.1138027 -407.54065
20.268963 2.431669 -407.46173
98.434868 7.0294166 -430.64081
63.923138 7.8909712 -412.08325
64.291641 10.006846 -412.05676
64.867363 8.5458307 -412.06036
91.348885 -54.343796 -416.96655
87.824692 -42.424519 -416.53183
97.31234 -25.14175 -417.0668
13.111455 -28.286602 -409.12866
11.912969 -25.341381 -408.94882
13.405252 -25.95977 -409.11926
11.606398 -27.606762 -408.92108
82.584389 -35.596809 -415.96036
36.252155 -43.63158 -411.90244
59.295376 58.114239 -420.75436
60.878418 57.474697 -421.00391
61.652046 58.870907 -421.25104
60.057564 59.490711 -420.81467
51.516632 -17.100607 -412.51636
51.075897 -19.138248 -412.64728
95.532654 14.463863 -430.83752
12.03994 -19.528732 -408.6882
10.122846 -20.934143 -408.48459
-0.75346577 -30.108994 -421.66022
1.5232947 -29.485554 -421.81061
87.185326 -28.303467 -416.26886
6.4279356 -20.623074 -409.04004
90.386284 9.9453068 -426.46304
88.154938 8.9809742 -426.21817
88.94812 10.344385 -426.2475
89.677231 8.5567741 -426.40692
98.926414 -1.7238688 -428.14929
88.082779 18.949018 -425.3382
106.22339 -14.931576 -419.95587
4.3135357 -9.4938021 -407.13565
4.7023935 -10.48895 -407.26883
5.0319815 -8.2477102 -407.25266
5.6092815 -9.6871738 -407.38535
7.8142862 -45.733631 -409.19449
6.6185751 -42.794449 -408.95703
7.2148733 -44.258076 -409.08087
33.143112 -45.070984 -411.65207
30.767046 -53.633854 -412.13715
31.355644 -55.073967 -412.27274
33.355694 -53.930931 -412.48306
30.72616 -62.668503 -412.53259
32.241249 -63.35461 -412.69974
69.151276 -33.274364 -415.1037
82.487427 18.106178 -413.06531
84.150986 17.208208 -413.35797
85.812836 19.167612 -413.74292
82.883301 20.186758 -413.07144
84.403786 19.55319 -413.302
27.889246 -22.368908 -408.91022
88.237282 30.129293 -416.65192
2.1354318 -18.238567 -421.35043
2.5206089 -19.274731 -421.58438
81.06781 -47.393505 -416.21881
83.66555 -47.705299 -416.41284
81.573097 -45.567616 -416.25494
83.051559 -46.074551 -416.33771
67.080017 -34.292271 -415.13019
26.03817 -57.193054 -411.80325
27.482079 -57.740768 -412.02533
28.05018 -59.12949 -412.14822
27.738214 -55.279896 -411.9111
29.158049 -55.797279 -412.14853
29.832714 -57.422604 -412.31244
108.016 -36.487049 -416.52545
98.071648 -2.8344884 -428.22641
88.68187 17.427603 -425.92923
87.437149 -5.7160664 -426.79468
88.567047 -5.3446908 -427.04742
99.10672 5.2333241 -430.55533
24.243151 25.994619 -374.0885
25.611601 25.381939 -374.18997
84.506401 -34.174622 -416.05096
63.218647 -33.909725 -414.43719
63.755905 -35.280563 -414.86588
5.8737726 -1.1320424 -406.93997
7.338891 -1.7335213 -407.23166
3.1990395 2.4895904 -406.33038
3.7917383 0.97936094 -406.52628
5.2747622 0.37679321 -406.7338
5.3892412 3.1598067 -406.57779
6.8852806 2.4883981 -406.8252
7.46838 1.0319625 -407.00485
8.9597263 0.37956411 -407.23535
52.193287 -57.583778 -424.19586
54.338833 -56.664742 -424.44818
46.407532 -41.405258 -413.55179
91.05265 5.0120573 -426.89325
92.509781 4.6049724 -427.08405
93.301781 5.9685059 -427.11563
91.715172 6.4203663 -426.85602
13.234097 19.790342 -406.51068
12.614672 21.252211 -406.47388
11.135517 19.110693 -405.56085
77.894997 -51.844944 -416.20236
79.914322 -50.677654 -416.18304
77.231964 -50.238235 -416.13406
77.67968 -48.238331 -416.15619
79.222618 -48.944687 -416.18326
7.6501322 -39.216709 -408.86661
8.253109 -40.722328 -408.96274
-9.8134747 -2.0703249 -405.02063
-8.9018946 -1.2401901 -405.05246
3.6776633 25.644699 -405.72598
0.99466097 29.193649 -405.36475
1.5832652 27.732426 -405.48535
3.0904741 27.11047 -405.58969
3.1990445 29.883455 -405.53403
50.625042 -48.722019 -413.83182
49.169617 -48.20274 -413.6261
49.796909 -49.762684 -413.8866
4.2274671 36.605885 -404.19174
5.5092669 36.017818 -404.69476
6.0791273 34.546093 -404.80652
4.044899 36.615753 -404.06161
51.274952 62.116768 -419.64783
50.57806 63.592804 -419.50912
51.774757 60.844791 -419.70139
1.4644742 -42.441574 -408.47208
1.8684678 -43.414421 -408.35571
87.218498 -31.487095 -416.61456
86.831673 -30.51687 -416.77618
60.817509 -49.47298 -415.09933
60.379662 -48.479923 -415.00925
-10.418822 48.31966 -403.12982
-9.8647318 46.876163 -403.50674
-8.2415781 49.011242 -403.44031
-7.6687164 47.576889 -403.71326
-7.1049156 46.116585 -403.8363
-5.9544268 49.477924 -403.68365
18.619507 -54.138332 -410.88733
19.24728 -55.591427 -410.73657
21.030914 -53.961067 -411.06445
50.431957 7.0655255 -411.43683
52.086697 63.219826 -419.76584
52.62973 61.685661 -419.90823
53.530094 62.819836 -419.8877
44.883179 -64.953674 -413.33115
27.543129 -39.565956 -411.32831
28.974806 -40.064327 -411.47784
3.4721785 -41.00555 -408.51974
3.8056204 -42.011253 -408.48386
56.731991 16.353319 -410.97815
57.328945 14.872332 -411.0834
58.820717 14.248671 -411.20938
58.65313 17.783178 -410.9729
59.225891 16.323763 -411.0575
60.685318 15.874061 -411.18118
38.849236 17.508095 -409.24069
35.960182 18.538885 -409.03476
36.558926 17.063782 -409.05447
37.674812 20.442604 -409.12234
38.288738 18.954046 -409.20181
37.18491 15.553329 -409.1669
34.623764 15.673313 -409.00159
34.065628 17.108385 -409.04819
38.373341 21.775692 -409.0947
87.049179 -8.9493542 -415.06012
87.716545 -10.678474 -415.1434
86.174911 -6.9315953 -414.96246
87.669632 -7.5786085 -415.09604
85.434341 -11.533684 -414.93118
85.573868 -8.5246954 -414.90546
86.17173 -10.218171 -414.97812
84.033463 -7.8616953 -414.71048
15.759029 -50.083622 -410.20572
14.349745 -49.560894 -409.81119
14.760281 -47.553989 -409.85919
16.276377 -48.251308 -410.03705
8.9800272 30.268017 -405.42734
6.6766548 33.093937 -404.93814
6.4400301 30.565331 -405.01218
8.2157764 32.216076 -405.28708
83.065277 -1.1079023 -426.15216
82.329498 -2.4708796 -426.00858
12.976074 -6.5818291 -408.37088
13.567537 -8.05826 -408.50714
15.175522 -5.8859787 -408.49152
15.769352 -7.3943105 -408.67654
95.038795 -46.327717 -398.65555
1.3274257 -8.2060995 -406.7049
1.6367249 -5.9381156 -406.68811
2.2228167 -7.3658018 -406.79391
94.634399 -12.396179 -415.85129
93.964729 -10.467104 -415.78961
95.383804 -11.075611 -415.91876
94.814728 -9.1628637 -415.81549
96.272141 -9.798768 -416.00702
96.137276 -12.844741 -416.0043
96.895187 -11.513134 -416.11542
85.488068 -55.587399 -416.66248
86.499001 -54.706818 -416.72153
85.005661 -54.064259 -416.54337
105.51087 -23.282194 -418.03787
19.985519 -51.597443 -411.50143
20.405441 -52.572979 -411.38562
18.609339 -51.250488 -411.24677
83.798843 -3.1326029 -426.23306
84.589867 -1.7603817 -426.33701
-3.6099498 43.646793 -404.23053
-3.0045149 42.191364 -404.35376
-1.5148773 41.557861 -404.49045
-1.5112784 44.580559 -404.39676
-0.92479777 43.121304 -404.52435
67.736641 -57.553478 -415.62656
-6.4496288 -4.3139253 -405.66678
-5.429019 -3.7419679 -405.60962
11.477013 -5.9222374 -408.19107
10.898994 -4.460506 -407.92075
11.613008 -3.141474 -407.81885
8.8186874 -2.3531389 -407.52176
9.4160357 -3.8723447 -407.68628
53.113304 -45.746223 -414.12589
22.222834 -51.04464 -411.77142
22.707417 -52.146797 -411.63452
23.334589 -53.558231 -411.32455
22.96604 -49.850616 -411.8399
7.5490589 36.96191 -405.21747
79.261742 44.15802 -423.71567
43.887737 -62.670971 -413.15894
42.568638 -62.268745 -413.15665
89.361259 -33.783531 -415.99268
87.976418 -33.393032 -415.98251
-12.855863 42.082329 -403.23059
-13.441442 43.540951 -403.10327
-10.67884 42.780148 -403.55899
-11.264062 44.235786 -403.4028
34.058994 -47.543243 -412.49017
34.972328 -46.758919 -412.60678
48.150509 -24.161564 -412.54694
49.222828 -20.62615 -412.38409
47.763187 -20.107294 -412.16766
49.769379 -22.032402 -412.58081
46.15403 -22.26314 -412.16602
47.60218 -22.765688 -412.34918
92.202637 -4.3598089 -427.33301
92.828545 -2.9269891 -427.26617
93.577415 -4.5202727 -427.56189
91.445061 -2.3553083 -427.04288
48.02079 -56.624725 -423.2959
85.30825 -3.555403 -426.4444
85.869324 -4.8264246 -426.45233
63.569901 -57.616287 -425.06375
25.191038 -21.982103 -408.53705
25.737951 -23.432766 -408.66071
69.761215 -34.7798 -415.88715
71.090492 -34.977711 -416.07513
35.179501 5.0757108 -409.65875
32.870472 4.6430449 -409.54462
31.696011 7.5830355 -409.20715
32.305958 6.0725002 -409.4053
33.417732 9.459856 -409.28873
33.994671 8.0124922 -409.43118
34.576725 6.5822067 -409.56714
36.218765 8.656786 -409.50488
103.44356 -28.248268 -417.26556
105.04317 -28.866552 -417.39117
34.484081 -45.437054 -412.12308
30.462397 -38.3125 -410.58478
31.978292 -38.966125 -410.6777
30.858557 -36.301937 -410.68222
32.356892 -36.873711 -410.82602
30.441221 -38.310352 -410.75137
107.68544 -25.718147 -418.25375
20.179306 -6.4348307 -407.46036
20.170504 -6.4328017 -407.52042
20.32494 -58.292217 -411.06073
22.240309 -56.921646 -411.23254
19.751225 -56.865108 -410.89435
21.615969 -55.352783 -411.04898
10.528232 -49.342533 -409.44635
11.118223 -50.733967 -409.55814
12.536963 -51.338081 -409.87231
12.853781 -48.9254 -409.59134
86.667 -14.529344 -415.03976
87.643456 -16.821241 -415.25989
88.305779 -15.442721 -415.23093
88.919174 -13.666335 -415.31711
89.861816 -16.121836 -415.46323
86.11615 -16.337658 -415.091
88.216003 -12.122155 -415.21115
86.114113 -13.070128 -415.01135
8.7711935 -57.278709 -409.73685
9.2267208 -55.567432 -410.19391
10.189697 -57.65741 -409.73062
46.118004 36.578747 -408.96906
47.591492 35.95507 -409.11417
45.524761 38.047291 -408.79517
43.82246 36.125507 -408.81177
44.461704 34.424252 -408.97855
44.008717 38.686615 -408.6257
45.918644 34.012131 -409.10474
49.912247 -58.220757 -424.10355
48.936905 -58.885136 -424.02051
1.2209477 -57.440147 -409.50558
72.863983 -1.9726202 -413.26205
74.302361 -2.4490147 -413.41592
-9.1368456 -37.998962 -421.07574
-8.1153927 -40.600281 -421.27515
-7.5843163 -38.712994 -421.27777
-6.132925 -39.111031 -421.46857
-1.1431255 -5.133945 -406.22134
-0.33544838 -4.0946293 -406.29062
49.329128 44.191017 -408.85803
47.20565 43.255398 -408.7204
45.092617 45.366787 -408.40186
45.677616 43.895142 -408.54547
47.221298 46.303841 -408.52274
47.824005 44.828358 -408.64838
59.458557 51.343822 -420.98065
60.039135 49.822411 -421.13702
60.05125 52.950005 -420.974
62.360226 53.670654 -421.22565
61.605953 52.294834 -421.10138
62.251526 50.793972 -421.24942
63.849957 53.289871 -421.50909
64.444611 51.769329 -421.56134
49.17984 7.3157477 -411.03119
47.696678 7.8060069 -410.73401
49.542652 9.4372501 -410.82059
-2.6450169 13.807876 -405.37827
-1.174052 13.166615 -405.6864
-0.57424808 11.717575 -405.7608
1.4317664 12.891803 -405.93835
2.0347495 11.429494 -405.94351
-1.2255321 16.463245 -405.35107
-0.65134811 14.969839 -405.62262
-0.67141819 18.216227 -405.19278
0.83449799 14.352963 -405.87332
0.65952587 17.849794 -405.67017
1.2477816 16.384211 -405.79596
25.139097 -64.000359 -411.57169
2.5542502 40.304638 -403.91714
70.580315 -8.8682919 -413.79666
70.997604 -9.8375635 -413.77328
71.81459 -8.7737875 -413.74393
88.153526 -18.250771 -415.34036
90.382706 -17.56551 -415.48218
88.821777 -19.795012 -415.39667
90.320007 -20.429613 -415.54984
90.909782 -21.915386 -415.6467
91.027634 -19.085234 -415.58884
92.617233 -19.973448 -415.78665
53.860802 32.876369 -409.67023
51.150791 36.474091 -409.23166
51.754326 34.997334 -409.43472
49.053719 35.523312 -409.22357
48.008465 31.90057 -409.35742
47.405266 33.380119 -409.24112
49.602432 34.089386 -409.40509
49.512482 31.259336 -409.50354
50.238564 32.581631 -409.52716
51.713543 31.957254 -409.65244
52.360264 33.512268 -409.58228
27.041445 -62.683449 -412.01544
28.514185 -63.308083 -412.28333
36.80986 -45.127308 -412.56888
-17.399275 36.491848 -416.49945
-4.2953558 -18.231661 -420.78491
-3.2586682 -17.627308 -420.89514
71.826447 -5.7177901 -413.61826
68.644432 -16.424778 -414.11191
69.821671 -19.371862 -414.41214
69.193642 -17.818781 -414.21503
-12.716333 -6.7399383 -418.81421
43.139626 16.081455 -409.76733
40.282192 17.079159 -409.40781
42.013443 12.705739 -409.90799
43.742401 14.591736 -409.94424
38.652485 14.940978 -409.37259
39.225815 13.490081 -409.53754
40.849529 15.629578 -409.55557
41.455074 14.131334 -409.74844
40.29047 -53.613419 -412.62564
24.621523 -50.833061 -411.98886
25.510683 -49.996143 -412.14499
24.112541 -49.595196 -411.9566
25.047306 -48.849766 -411.91748
26.333359 -48.972717 -412.17477
21.408173 -3.1263566 -407.25247
91.02372 14.973935 -426.51141
-2.3664551 31.443607 -405.12408
-1.8874314 30.217405 -405.13303
10.055113 -39.002918 -409.14105
9.4635668 -37.587994 -409.03445
70.607323 -33.742378 -415.6434
11.772566 -61.557171 -410.09219
13.284498 -62.253929 -410.27811
14.784832 -62.823208 -410.45914
30.646719 -65.480667 -412.48166
29.147568 -64.841728 -412.3512
-1.9868314 -27.092007 -421.44012
76.326584 54.92255 -423.05811
10.431467 -0.22642337 -407.56226
11.019821 -1.6772782 -407.70239
12.434265 0.88941616 -407.78326
13.016746 -0.52809417 -407.91751
10.940371 1.5785177 -407.51395
12.839852 2.9770203 -407.67337
78.142395 -30.76671 -415.79404
100.18744 -25.968466 -417.59573
99.746758 -24.784487 -417.30951
73.83696 20.727051 -411.92896
77.44368 17.970541 -412.45099
74.498512 22.089933 -411.87982
75.316376 20.098339 -412.14902
75.964424 18.598162 -412.31253
75.935425 21.689734 -412.10809
77.628113 20.556593 -412.40332
74.159721 16.693964 -412.14874
73.466759 18.204655 -412.0192
56.903561 -24.375769 -413.49799
55.683121 -21.344294 -413.19327
56.324894 -22.91674 -413.34396
58.929466 -23.230198 -413.6218
57.730686 -20.238895 -413.29535
58.349705 -21.766758 -413.43698
75.617065 50.142662 -422.95541
76.283043 51.510311 -423.00909
20.845062 0.94991267 -407.83792
20.874809 0.93890572 -407.66891
71.689056 0.91136354 -413.1868
72.48774 2.0681973 -413.1084
73.095284 0.54540861 -413.17377
5.8912277 -38.095509 -408.71609
6.326519 -39.068474 -408.68802
-8.4234915 -7.9224758 -419.66641
-8.0375118 -8.9883652 -419.89594
49.931038 42.715714 -408.97281
51.440372 42.082405 -409.09924
52.13728 43.410717 -409.05356
53.653385 42.768776 -408.90988
51.99543 40.60619 -409.17749
53.424007 40.208862 -409.28305
36.147392 -60.801033 -413.01575
36.78278 -62.402332 -413.13269
79.633224 31.428928 -412.22269
78.336884 28.262213 -412.09549
79.153496 29.588673 -412.16064
80.717567 28.698545 -412.39166
81.346268 30.29077 -412.48993
101.40604 -13.230963 -416.62396
103.0133 -13.90639 -416.76956
9.0596333 -24.560326 -408.55667
64.884773 -41.150368 -414.97086
98.827774 -25.641026 -417.44794
99.431404 -27.29512 -417.42642
82.873985 -17.602381 -414.92343
83.997826 -20.373611 -415.07483
84.308723 -18.033228 -415.02316
85.84024 -18.701078 -415.20569
80.38855 -20.720304 -415.06699
81.844849 -21.27276 -415.08176
80.359886 -17.56686 -414.84241
80.991508 -19.111288 -414.97305
82.461121 -19.693373 -415.00742
105.87028 -55.23851 -399.21649
30.768705 3.731817 -409.28433
25.488165 4.6005545 -408.59875
26.081604 3.1225624 -408.77029
25.718348 7.125905 -408.45645
27.184223 6.51127 -408.69678
27.792776 5.0098977 -408.88422
28.393637 3.5229287 -409.00848
29.564533 6.7140141 -408.98367
30.175337 5.2056327 -409.15161
62.173431 -28.257034 -413.94543
61.600365 -26.807308 -413.90103
62.281334 -25.457594 -413.97308
57.492271 -25.842077 -413.61475
58.106842 -27.359999 -413.69318
59.613995 -28.028236 -413.83344
59.53434 -24.724556 -413.69281
60.124134 -26.19754 -413.78247
61.726933 -24.019609 -413.8511
65.759491 -52.590904 -415.48145
66.876183 -52.336868 -415.44131
91.397614 -35.705681 -416.26416
92.870895 -36.335888 -416.48822
-28.412312 37.687904 -401.47607
-26.972013 40.323399 -401.51791
-26.398884 38.869102 -401.6329
41.795567 -51.269611 -412.84552
41.182377 -49.747437 -412.69791
64.18084 -42.477844 -414.93024
65.599716 -42.938065 -415.04123
0.74543965 -56.115749 -409.18253
27.652586 -19.208633 -409.91965
29.071417 -19.66118 -410.18896
71.317833 -7.5240955 -413.71265
78.28466 -34.199947 -416.35272
77.873039 -33.206467 -416.45181
-16.518713 42.004177 -402.68961
-15.032958 41.382164 -402.90158
110.40366 -48.490662 -399.58334
111.86982 -48.802063 -399.96878
107.82535 -47.986233 -399.42664
109.86274 -47.089165 -399.57587
111.31155 -47.362202 -399.85474
108.60889 -49.768898 -399.56033
110.13938 -50.928333 -399.81924
73.928276 41.069317 -422.85471
74.801292 42.485565 -423.05597
76.347733 41.825993 -423.25195
80.36969 32.767662 -412.24222
80.871071 34.589954 -412.30792
82.485321 33.957043 -412.47754
47.110645 -18.473423 -412.2175
48.947693 -16.9662 -412.3349
49.586754 -18.50457 -412.48544
20.390984 -27.991621 -410.07648
22.701708 -27.598747 -410.26196
103.13488 -39.256592 -399.04874
101.76051 -38.874287 -399.08899
-4.6757374 3.6219687 -405.39691
-4.0794144 2.1638308 -405.46768
-2.5876765 1.5117997 -405.69449
-2.0110586 0.07210052 -405.88892
-0.10568577 1.4729059 -406.05811
-2.7715087 5.0333242 -405.53485
-2.1835749 3.5493824 -405.73358
-0.69335902 2.9160311 -405.94141
43.120049 6.8866758 -410.33966
43.669594 5.49263 -410.56949
45.297756 7.6199579 -410.5011
55.264687 -44.906437 -414.25543
56.732819 -45.519215 -414.46869
55.814159 -43.291653 -414.40601
24.164375 -4.3685312 -408.94583
26.252409 -3.4534218 -409.15289
104.42077 -17.403311 -417.06604
0.89145118 -31.088692 -421.82376
2.3269134 -31.504503 -421.96152
103.40636 -34.123211 -417.32397
104.72655 -34.275875 -417.38779
-2.1412723 -36.142059 -421.70914
-1.532707 -37.694599 -421.82547
-0.6920948 -36.59742 -421.8475
5.4764166 -67.480667 -409.63553
3.3812203 -65.473343 -409.23853
4.8894377 -66.094261 -409.47281
56.091415 -60.956406 -424.57385
57.414867 -61.126225 -424.7337
56.662247 -62.216267 -424.36868
57.942257 -62.353901 -424.56085
30.155666 -31.494719 -410.54266
30.765196 -29.92487 -410.54993
32.180698 -30.388859 -410.7843
42.62785 -10.395194 -411.38315
43.20821 -11.866043 -411.57367
20.318941 -21.70734 -409.78329
20.8253 -19.90917 -409.75815
21.81551 -22.388023 -410.06738
-1.0679188 -48.395004 -408.23737
-0.46701741 -49.904881 -408.2955
1.6650336 -48.934097 -408.48779
51.849991 -36.431797 -413.50531
49.866844 -34.552811 -413.18936
50.414814 -35.958321 -413.35208
50.338848 -32.685818 -413.19312
51.80064 -33.265293 -413.37906
52.445618 -34.846733 -413.50336
48.335926 -33.843876 -413.04288
28.483459 52.602295 -406.60699
29.066872 51.134453 -406.77219
24.454401 50.248749 -406.49677
25.02783 48.773884 -406.63007
27.05578 49.957336 -406.7063
24.375463 53.531448 -406.33966
24.968941 52.069088 -406.42883
26.468002 51.428265 -406.57144
26.981316 53.238171 -406.49582
26.388971 54.701885 -406.41251
91.409554 -32.635845 -416.20697
90.826393 -31.209723 -416.53702
90.399712 -29.990768 -416.83133
-8.9779463 25.326317 -417.27353
-8.3750925 23.816404 -417.48581
44.294353 -57.264965 -413.41458
70.357216 -54.727848 -415.68887
68.565048 -56.47303 -415.67188
37.368633 -63.814381 -413.15121
93.53981 -28.458464 -416.97928
93.093163 -27.373711 -416.88852
68.13649 -46.155342 -415.47217
69.659492 -46.864624 -415.55414
71.562515 -45.468857 -415.62292
68.63298 -44.276787 -415.27878
70.08638 -44.835751 -415.40619
70.609421 -52.261971 -415.685
71.290939 -50.911728 -415.82101
72.072838 -52.851749 -415.76212
71.734734 -48.901066 -415.85672
73.215195 -49.522312 -415.97375
58.711864 69.297447 -420.28369
59.601883 70.451073 -420.5379
60.219498 68.926689 -420.55392
59.467003 67.54528 -420.44525
54.9048 68.92244 -419.47794
56.453159 68.560974 -419.87128
57.029907 67.052666 -420.10834
57.188316 69.932564 -419.89096
48.50946 52.506851 -408.27969
48.987053 51.273155 -408.38861
63.267666 -49.560703 -415.1301
64.177429 -48.632298 -415.24591
-7.6185246 38.27816 -404.10101
-7.1285954 37.08683 -404.30887
-6.2399492 37.873909 -404.26691
59.476658 -56.88266 -424.95447
59.960865 -58.073956 -424.95071
57.075001 -57.205898 -424.71298
68.034592 35.031723 -410.41196
