ply
format ascii 1.0
comment PCL generated
element vertex 1490
property float x
property float y
property float z
element camera 0
property float view_px
property float view_py
property float view_pz
property float x_axisx
property float x_axisy
property float x_axisz
property float y_axisx
property float y_axisy
property float y_axisz
property float z_axisx
property float z_axisy
property float z_axisz
property float focal
property float scalex
property float scaley
property float centerx
property float centery
property int viewportx
property int viewporty
property float k1
property float k2
end_header
23.068411 -7.4441361 -408.45895
11.616309 -27.610718 -408.84662
13.121465 -28.290239 -409.05682
13.57818 -35.522488 -409.43353
16.691229 -37.119183 -409.82904
14.185683 -37.024647 -409.54272
15.486413 -34.153961 -409.65936
16.077971 -35.596733 -409.73941
62.421181 11.581698 -411.27371
61.652081 10.241409 -411.40756
-42.951645 -0.28634924 -401.73239
-40.349289 -6.5362244 -402.05383
-43.118336 -3.0655615 -401.67859
-42.478821 -4.4863381 -401.74194
-42.359913 -1.7332633 -401.77936
-40.951355 -5.104466 -401.90326
-40.290028 -3.5296779 -401.94958
-40.900967 -2.0938199 -401.922
-40.485073 -0.065402165 -401.92001
-38.745678 -4.4630256 -402.07556
-38.993382 -0.41652757 -401.91422
-38.431553 -1.8774295 -402.01279
-3.2939398 -39.643482 -421.69855
-2.4949875 -38.583855 -421.72247
35.021164 -43.572437 -411.58145
-68.612831 12.026394 -398.29175
-69.887085 15.143659 -398.08295
-67.786606 13.374979 -398.39044
-68.395294 14.808129 -398.28781
-67.584412 16.154808 -398.37891
-66.156273 15.522755 -398.67227
-66.34816 13.021363 -398.6759
46.047352 24.379251 -409.54349
44.174625 22.741148 -409.45462
43.61602 24.204941 -409.26126
42.117195 24.846994 -409.10873
45.43346 25.871252 -409.19833
43.956665 26.495514 -409.0144
6.8263545 -19.259548 -408.50085
70.580528 -8.87006 -413.71942
10.470443 -52.214317 -409.77652
22.272818 -71.61512 -410.21951
-35.515354 -79.197411 -405.97382
-35.513306 -75.86692 -405.85873
-34.726627 -77.823608 -406.05771
-34.01619 -79.504662 -406.1474
-34.016926 -76.161865 -406.04227
-33.246685 -78.173882 -406.2041
-32.610947 -76.71978 -406.13449
-57.474468 -88.266777 -414.23175
-32.863361 -30.005558 -417.76599
-28.775845 30.052799 -414.88574
-28.135447 28.552401 -414.91898
-12.159075 3.7604115 -404.43283
-11.560241 2.3229108 -404.52939
-13.767066 1.6387954 -404.31946
-14.361205 3.0868351 -404.20856
11.494725 -5.9384646 -408.01587
11.186554 -8.2494984 -408.10355
14.194466 -9.6145267 -408.57678
16.363972 -8.8459558 -408.78339
13.584776 -8.0719995 -408.36081
15.774734 -7.4116201 -408.53021
12.912907 -6.6400905 -408.22531
11.776361 -9.7113008 -408.25793
-9.5535355 -8.3486137 -419.53839
42.319355 36.762585 -408.48468
41.79678 34.949398 -408.5473
43.834564 36.118145 -408.69208
44.474304 34.417793 -408.85901
42.405788 33.472042 -408.65591
43.90015 32.835621 -408.85999
40.479977 32.057022 -408.54111
41.974144 31.414644 -408.72098
63.382965 -40.519699 -415.01511
61.886482 -39.885048 -415.09201
62.779755 -42.059704 -414.76926
19.528135 -50.375984 -411.09924
19.996595 -51.60154 -411.42883
-30.903797 29.070217 -414.19009
-30.160263 30.41396 -414.20776
-30.201273 30.42979 -414.5625
71.818977 -8.7767429 -413.66724
86.8386 -30.518465 -416.71005
87.22274 -31.485456 -416.54831
10.049638 -54.624653 -410.26562
9.5679693 -53.341816 -410.00113
79.457718 35.233017 -411.97864
78.829132 33.642677 -411.85477
77.342621 34.031075 -411.6424
79.640984 31.426416 -412.16617
80.377396 32.765263 -412.1857
80.879341 34.587601 -412.24854
-48.882046 -1.2982454 -401.09097
-48.249599 0.23967147 -401.02264
-47.489071 1.5709469 -401.18372
-46.751724 -0.39111596 -401.25052
-46.007668 0.94228894 -401.42462
-44.492893 0.32711607 -401.66354
-50.163078 1.818969 -400.80957
-48.845337 1.6828637 -400.94742
-48.343441 3.4726136 -401.29724
104.94248 -21.764231 -416.73166
103.25168 -20.820934 -416.20688
103.24891 -20.808342 -416.19888
84.334694 5.5276699 -425.8844
85.044334 3.7500629 -426.15515
83.554077 4.1742315 -425.97867
34.541725 -56.828766 -412.62738
35.992477 -57.374691 -412.78976
69.160759 -11.524609 -413.82138
-28.048449 0.50122875 -403.01834
-27.432373 -0.91268295 -403.1629
-28.61931 1.9524159 -402.81387
-30.854702 1.2815485 -402.67303
-30.301987 -0.20951553 -402.80493
-29.678282 -1.6116433 -402.9621
10.555707 -55.714981 -410.13989
8.7794609 -57.27972 -409.66315
10.199126 -57.656864 -409.6571
9.2360182 -55.567425 -410.1203
49.808086 -49.770638 -413.82867
10.944613 -53.68689 -410.37445
12.351063 -54.095505 -410.56165
11.883382 -52.955101 -410.30774
-46.958851 5.3929324 -414.0748
-45.894482 5.9943318 -414.17975
75.032059 -13.657834 -414.10571
75.652855 -15.158882 -414.14258
77.189308 -15.831579 -414.23907
77.173218 -12.718841 -414.1449
77.719559 -14.150909 -414.26477
79.70179 -12.760799 -414.23117
79.174156 -14.590127 -414.2746
-66.224899 -35.612011 -401.19595
-65.439697 -34.299644 -401.21811
-64.695053 -36.265007 -401.38016
-63.893219 -34.933418 -401.41968
-64.850296 -32.515308 -401.12607
-63.389797 -32.884819 -401.35391
11.287626 -69.325897 -409.95023
11.875486 -67.866173 -410.07812
9.010993 -67.192291 -409.92554
9.7465897 -68.821281 -409.84918
2.160615 -53.317745 -408.66849
3.5606353 -53.626995 -408.85703
2.8730617 -51.868683 -408.62219
-46.995731 14.598589 -414.77789
-30.499247 -35.690414 -418.54181
-64.094612 -44.149448 -401.99457
-62.626568 -44.52964 -402.17798
-6.8125658 -3.3721461 -405.31308
2.6331067 9.9605045 -406.01663
2.0454538 11.42417 -405.85089
0.041246518 10.264992 -405.74478
1.2134265 7.3612309 -406.10983
2.7071009 6.6931434 -406.25229
3.2126429 8.5158272 -406.24023
0.62538546 8.7950144 -405.9021
27.333815 -51.313023 -411.94971
27.935877 -52.777332 -411.78232
29.361595 -53.16399 -411.89597
27.953199 -52.747036 -411.76682
25.06152 -48.859909 -411.83038
25.521893 -50.001778 -412.05804
24.126259 -49.605022 -411.87115
75.624939 50.14072 -422.89151
74.099075 50.531059 -422.63327
74.889137 48.765755 -422.85114
27.142179 -65.923851 -411.94537
19.815577 -26.554668 -409.86227
21.492579 -24.599169 -409.9212
22.104582 -26.115839 -410.01422
17.480837 -42.074139 -409.98663
15.472033 -43.223892 -409.82101
16.061098 -44.681149 -409.98294
16.658384 -46.13752 -410.06067
18.069067 -43.548916 -410.13913
5.8905883 -1.1423595 -406.80768
4.0609031 -2.7254012 -406.68881
3.6458511 -4.7897649 -406.85043
5.1306124 -5.4094481 -407.05612
5.5533309 -3.3943198 -406.98053
7.3741956 -1.7553718 -406.97403
7.04667 -4.0630946 -407.3002
70.910179 37.605122 -411.30817
25.77318 -11.109144 -408.66394
25.904772 -11.058871 -408.32516
26.045797 -11.092875 -407.66528
-26.931015 -38.278755 -419.48019
81.588066 -45.571064 -416.01727
83.092247 -46.080776 -416.10333
83.545609 -44.205566 -416.10156
85.068588 -44.88121 -416.20679
75.053131 -32.390919 -415.88831
-87.897926 7.3946652 -397.4357
-89.519783 11.188605 -396.94659
-88.681953 9.2977638 -397.16757
-88.588081 12.564514 -396.95563
-87.986801 11.141433 -397.13708
-87.191109 8.9576101 -397.36456
-86.508987 10.511099 -397.29913
-90.552261 13.830705 -396.65793
-89.553741 14.957981 -396.73492
-88.057343 14.346365 -396.90829
-86.486816 14.032336 -397.1004
-85.831413 12.347521 -397.23462
-84.935921 10.210355 -397.49374
-84.937157 13.712219 -397.26221
-84.357292 11.998534 -397.36444
-29.361334 -68.512138 -406.51352
-29.124695 -66.480385 -406.53641
-27.657228 -66.811996 -406.71854
-26.270658 -66.850449 -406.85178
-28.080647 -65.38028 -406.49792
-25.638584 -68.283707 -406.70636
28.492176 23.965534 -374.36591
27.027475 24.755125 -374.1521
94.105827 10.736934 -427.0108
13.692886 12.745455 -405.36658
14.220278 11.236558 -406.08884
13.644039 12.737396 -405.32822
14.321258 11.241199 -405.27148
18.967394 -3.535296 -407.59622
19.009388 -3.5530741 -407.24219
95.494141 -23.881653 -416.15402
-13.174603 0.18116313 -404.4053
-12.589767 -1.2670739 -404.56729
58.147079 -42.884415 -414.51056
57.548653 -41.454166 -414.83575
48.323242 6.2956071 -410.88663
28.654264 -12.401276 -409.603
-2.5960925 -22.443579 -421.08426
-1.4120247 -22.167772 -421.15424
4.6724443 -23.810976 -420.91522
68.500633 -34.693726 -415.53
68.938339 -35.840382 -415.88687
69.770012 -34.786247 -415.82687
45.296127 -63.27264 -413.0386
44.430042 -63.831043 -413.33713
-86.774773 -15.235574 -397.85229
-86.152893 -13.121102 -397.77829
-87.786819 -12.832686 -397.65613
-87.359833 -10.506954 -397.67761
-85.80954 -10.843653 -397.88586
-84.25222 -11.737283 -398.11102
-38.269836 35.11974 -400.56238
-37.712242 33.675663 -400.71204
89.0037 13.497353 -426.10904
90.548012 13.331577 -426.29593
-2.9687653 -21.488033 -421.013
-2.0346425 -20.676052 -421.14017
16.154613 6.6242013 -406.30533
14.562545 7.2151303 -406.25784
57.982246 -36.303547 -414.15607
59.309326 38.807533 -421.45804
60.807072 38.16304 -421.68369
61.007195 40.787033 -421.65948
58.703941 40.317165 -421.22278
60.488194 42.292618 -421.32578
58.119556 41.826118 -421.07779
57.494827 43.339943 -420.98831
-3.3561709 -75.861084 -409.02527
-2.6377418 -74.57206 -409.09781
-1.9360198 -76.313866 -409.13913
0.18696493 -54.439251 -407.89563
93.326668 9.3616543 -426.94101
92.707748 7.712666 -426.87701
-33.842815 -38.525692 -404.5361
-33.040817 -40.408085 -404.763
-32.391712 -38.948299 -404.68823
-34.481617 -40.057156 -404.52823
8.2589245 -19.256704 -408.33899
9.5014534 -19.55649 -408.34348
51.969296 -49.025635 -414.08694
-44.965279 33.006828 -399.96078
-44.600178 35.039852 -399.91739
-43.058727 34.430119 -400.13599
-43.502815 32.382835 -400.09225
18.641653 -54.120041 -410.68515
15.902964 -53.638283 -410.65717
16.434229 -54.737301 -410.41492
16.808367 -52.812279 -410.87396
50.440075 7.0578823 -411.3696
-55.993469 -22.123518 -401.12238
-58.176537 -23.1586 -400.89847
-57.544731 -21.643269 -400.88492
-56.658207 -23.794868 -401.151
-32.513519 -13.398137 -403.28073
-34.011459 -12.686968 -403.05692
-70.744949 -4.9251637 -365.90958
-70.044243 -3.7041156 -365.80911
70.617172 -33.750153 -415.58163
71.098366 -34.981934 -416.01425
40.688713 -17.876385 -411.47226
41.263699 -19.325989 -411.61002
39.5914 -21.268444 -411.46817
41.079926 -21.915133 -411.6705
38.953926 -19.722694 -411.33911
43.37553 -21.487093 -411.87906
41.692341 -23.435818 -411.83615
42.787441 -19.990679 -411.64441
27.295292 26.932522 -374.2211
26.942184 -47.25396 -411.63406
-61.777454 -11.056393 -399.57349
-60.874496 -9.8912601 -399.95929
-4.0180287 17.14443 -417.1409
-68.401031 -40.334427 -401.52643
-67.96627 -41.58152 -401.6702
25.627083 -46.945644 -411.23907
-28.90345 -13.585552 -417.20383
48.735954 -43.955551 -413.35724
48.735538 -43.956837 -413.36664
46.600967 -44.90379 -413.44247
52.881783 -39.063168 -414.01352
-49.335182 -54.597473 -403.50418
-48.71125 -53.119949 -403.53021
-47.12529 -53.691074 -403.74393
-5.5510798 19.94805 -417.91043
66.55027 -54.621616 -415.64801
-4.7088304 40.279446 -404.24466
-3.2203972 39.646065 -404.36493
33.037937 -14.105232 -409.98019
31.55938 -13.488718 -409.7919
30.126144 -12.993113 -409.68802
30.737543 -11.477025 -409.73898
32.219082 -12.115148 -409.92859
-37.055305 -72.239716 -405.56949
-38.230137 -69.731445 -405.82452
-38.997665 -73.568802 -405.40805
-40.678192 -70.228798 -405.60721
-39.91325 -71.307838 -405.71323
-39.505295 -69.842079 -405.71768
-38.533577 -71.872002 -405.64441
51.513088 7.5862761 -411.51285
-74.897583 24.379692 -397.02502
-74.314438 22.944193 -397.19885
-75.821625 23.020775 -396.98026
75.415352 47.24287 -422.9819
78.570656 46.216415 -423.5405
77.781517 44.832882 -423.46933
77.027351 46.594559 -423.22491
76.277466 45.219452 -423.20212
69.013123 4.4409266 -412.48978
69.922249 5.3662391 -412.55402
70.47393 3.9574087 -412.74255
7.6243815 27.557814 -404.79401
60.066307 49.816063 -420.84656
58.472401 47.331387 -420.75616
59.062405 45.815231 -420.84338
59.68544 44.301651 -421.03687
61.349907 46.527138 -420.95883
62.15189 47.896832 -421.16965
60.634212 48.308319 -421.03201
58.511513 47.325951 -420.48276
37.28651 2.9297998 -409.78394
39.46524 3.6463211 -409.94897
40.096497 2.1273911 -410.09274
37.85902 1.486244 -409.99106
38.471226 -0.01879099 -410.04373
-30.363255 -16.667278 -417.60342
-31.213476 -17.691626 -417.45895
-54.417683 15.406509 -399.86758
-55.739552 15.528904 -399.65427
-43.264786 2.6369464 -414.76715
-42.383175 3.7537103 -414.77814
3.9388781 -25.889757 -421.93524
97.318924 -25.144421 -417.02512
-66.29821 -79.393364 -403.69919
-65.461334 -78.062943 -403.78433
-64.763 -79.739067 -403.79807
-64.132889 -81.155151 -403.71552
-63.933136 -78.405678 -403.88782
-63.113861 -79.968109 -403.79074
-64.747162 -76.148849 -403.5831
-62.984699 -77.290504 -403.93436
-62.227055 -78.558167 -403.95557
-4.8687062 -72.311409 -408.80038
-4.1467767 -70.822708 -408.9678
-4.7466788 -69.416878 -408.85068
-2.3105581 -69.352982 -409.10025
-3.3435457 -72.975189 -409.00476
-2.7373228 -71.403778 -409.18466
-31.075949 35.134464 -401.01096
-32.516968 35.708 -400.4342
-65.167496 -0.93649167 -366.8873
9.8852835 -11.130846 -408.07056
10.470523 -12.593785 -408.25116
7.5898051 -11.544731 -407.77112
8.1705198 -12.992369 -407.90527
9.2934589 -9.6633129 -407.94794
93.750183 -25.823877 -416.42032
54.818619 24.307146 -410.00293
52.864025 22.899841 -409.84073
57.260799 24.482569 -410.18277
57.801029 23.043056 -410.34177
55.403633 22.832436 -410.09763
56.034096 21.321424 -410.14456
57.496414 20.71398 -410.45093
-10.365224 -49.515106 -407.42517
-9.8820429 -50.787823 -407.61346
52.169987 -40.380726 -414.35388
51.2813 -41.2593 -414.42291
86.753998 20.469673 -413.81577
73.92807 54.154457 -422.42883
10.007771 13.047846 -406.80856
6.8085027 11.826166 -406.51587
8.3065567 11.145974 -406.74008
-19.712601 -8.6301222 -418.3634
73.718391 -16.574345 -414.27136
75.098335 -20.031521 -414.54974
73.612465 -19.518433 -414.46262
73.073616 -18.117552 -414.3248
75.189445 -17.172571 -414.40717
75.829399 -18.721087 -414.55295
76.551888 -20.487524 -414.6636
66.585922 32.6133 -409.75293
64.963333 30.058514 -410.20212
67.163925 31.112825 -410.13852
69.392143 29.06336 -410.64984
67.741783 29.648207 -410.46753
66.576088 32.613796 -409.90359
-51.48634 23.930454 -399.83557
-50.661537 24.965246 -399.85876
-51.970654 25.115046 -399.67606
23.978235 2.4006083 -408.12585
22.568052 2.8470428 -407.80148
-9.7893553 27.317772 -417.10001
-1.7143149 39.007591 -404.29401
-1.1625599 37.586143 -404.41812
-2.6232266 -4.5105829 -405.89081
-3.209121 -3.0882657 -405.75549
-1.735684 -3.6276834 -406.02713
-2.5080633 -1.7421327 -405.83707
46.559238 -29.417191 -412.67181
47.14817 -30.897936 -412.86475
43.272797 -30.421535 -412.33368
44.720123 -31.023073 -412.59317
45.35043 -32.558208 -412.7583
42.891525 -32.62394 -412.36713
43.633961 -28.298803 -412.25446
45.059269 -28.75325 -412.46552
76.14344 -35.106277 -416.1937
77.011696 -37.269928 -415.72772
77.631294 -35.735573 -416.02017
7.2448826 29.028772 -403.52823
-30.787567 -18.988794 -417.97794
-29.921593 -17.979385 -418.03055
-28.585285 -18.04151 -418.26187
94.888184 5.3014956 -427.25314
96.496574 4.4037828 -427.46854
94.107674 3.9342611 -427.20651
18.83836 -21.041351 -409.3927
19.342421 -19.271557 -409.43405
17.342955 -20.436655 -409.32401
16.73489 -18.932924 -409.20044
79.830254 -28.758377 -415.30908
80.564323 -27.466129 -415.10474
79.077324 -26.855965 -415.19971
78.454063 -28.420336 -415.23038
-45.503868 -48.03978 -403.70984
-48.479778 -47.374367 -403.37589
-47.012104 -47.7416 -403.5383
-49.995182 -46.686638 -403.18149
-49.494888 -44.623886 -403.08655
-47.957363 -45.270679 -403.27936
-47.26775 -43.683807 -403.28305
-46.404251 -45.894024 -403.48553
-45.639503 -44.591633 -403.46216
-47.953228 7.8696909 -413.8981
95.176239 -26.096096 -416.83331
96.553528 -26.45402 -417.33121
95.773552 -27.580832 -417.24069
-51.010445 15.278563 -413.36267
-28.506664 -42.37907 -405.45877
70.010735 -10.408584 -413.79944
63.093178 -30.506985 -414.14996
63.775852 -32.177418 -414.35532
63.694054 -28.921085 -414.03543
65.131042 -29.380833 -414.23682
65.717979 -30.850166 -414.33786
5.7050862 -46.619621 -408.94446
6.3036833 -48.13522 -409.00311
7.824069 -45.737637 -409.11826
8.4247303 -47.207947 -409.19543
36.791534 -62.405006 -413.01532
37.375732 -63.805569 -413.03482
-70.466072 16.854879 -397.8718
-71.962738 17.415632 -397.05124
-60.267292 -8.3857613 -400.02768
-58.898979 -8.7733154 -400.44131
52.103745 63.213814 -419.60623
53.547073 62.813297 -419.72849
-54.0242 -27.043762 -401.61798
-53.305527 -28.673489 -401.82291
-51.779018 -26.056787 -401.74561
-51.205383 -27.526876 -401.96304
-50.639397 -29.00108 -402.10791
80.095047 -32.506405 -416.4577
78.798836 -32.375843 -416.37079
79.584976 -31.230877 -416.16547
40.319618 -29.273466 -411.94397
38.862343 -28.671501 -411.77087
39.949821 -31.364487 -411.8714
41.747929 -29.722965 -412.10349
41.425133 -31.979881 -412.08386
40.726974 -27.227152 -411.98285
42.151741 -27.675983 -412.14929
-54.999313 -94.826225 -414.97052
-55.453136 -93.17923 -414.99438
-53.987289 -93.664345 -415.11063
20.985668 -47.663872 -410.5567
21.666698 -46.327778 -410.68585
22.244814 -47.760303 -410.85532
23.065445 -46.74564 -410.90598
3.5648587 43.835617 -403.51129
4.3710084 45.194084 -403.49106
3.7522609 46.642582 -403.12787
3.6242218 43.826389 -403.24927
-52.453972 7.3468723 -400.46448
-51.195107 7.2102475 -400.92703
16.833162 -25.270657 -409.46826
18.309402 -25.884212 -409.7085
20.009331 -23.967176 -409.77982
17.105927 -22.895424 -409.48642
18.528963 -23.383434 -409.6282
-28.170975 -2.2391949 -403.12766
-27.566641 -3.6764686 -403.22171
-26.070625 -4.3227572 -403.36835
-28.205397 -5.2481117 -403.18372
-30.00518 -54.251575 -405.60724
-29.367447 -52.716202 -405.67099
-32.912872 -53.526005 -405.28995
-31.445366 -53.880291 -405.46344
-33.505932 -52.082058 -405.12982
-31.406858 -50.894489 -405.32663
-30.8239 -52.367561 -405.48068
13.289802 -71.359642 -410.17926
12.69468 -69.835442 -410.00198
47.62796 -50.531975 -413.51147
30.778656 3.7270482 -409.20975
27.803123 5.0051646 -408.80927
28.403749 3.5182741 -408.93375
30.185087 5.2005181 -409.07684
28.973116 2.0769045 -409.08176
31.36524 2.2525468 -409.40948
-6.175642 15.479333 -417.6712
0.15879443 -19.688683 -421.22244
2.1403804 -18.24428 -421.28241
2.5261955 -19.279804 -421.51636
90.805626 -27.87669 -416.67163
92.133919 -28.045174 -416.87427
15.053406 42.875263 -405.62497
15.673165 44.427841 -405.57623
15.631715 41.406307 -406.01596
17.144327 43.812298 -405.8587
17.719645 42.353348 -406.13058
20.020102 42.790443 -406.35574
19.44314 44.253025 -406.06998
-20.684151 -37.520302 -419.99951
-19.925783 -36.157761 -420.01788
-19.195059 -37.885372 -420.09503
-18.545418 -36.286335 -420.08691
-17.86211 -35.003117 -420.45505
-28.03631 -12.489432 -417.2092
17.534491 18.385256 -407.18884
25.38924 -9.5778761 -407.68002
74.359825 6.7823634 -412.72144
72.608543 4.88346 -412.82999
74.142578 4.1958895 -412.8378
-11.922145 -57.771847 -407.33682
-11.311868 -56.358959 -407.34149
-9.8926277 -56.875984 -407.46054
-11.392085 -59.343845 -407.89389
-9.2307653 -58.453453 -407.98755
-24.218174 -59.125919 -406.3765
-23.304678 -61.306686 -406.46582
-22.76483 -59.47514 -406.55548
-24.765177 -60.934803 -406.36792
-26.787493 -59.020794 -406.19131
-26.224468 -60.575348 -406.26157
56.927784 -24.382998 -413.28799
57.518055 -25.848146 -413.40506
55.061069 -25.840208 -413.01035
55.651726 -27.312391 -413.1041
55.64629 -27.310776 -413.15555
56.924519 -24.381849 -413.32089
94.049538 -2.1735322 -427.31302
94.780151 -0.78232759 -427.48264
96.278961 -1.4359715 -427.69241
-45.295605 -61.684639 -404.15759
-44.329166 -60.438183 -404.23087
-41.993771 -60.140755 -404.57526
-40.478111 -60.41013 -404.77927
-43.179077 -63.373661 -404.63678
-43.77055 -61.9212 -404.48132
-41.079147 -62.271523 -404.78146
-67.261108 -1.3320353 -366.18365
-7.035882 -43.406574 -421.43356
-7.4144449 -42.31992 -421.34415
-19.022097 39.042191 -402.52475
-17.737804 38.819172 -402.68921
-44.421799 24.861853 -413.47672
-43.755745 23.101316 -413.72284
-42.993206 24.481718 -413.72794
-42.320412 22.736235 -414.01578
-41.557457 24.100126 -413.91809
29.96563 -51.619362 -411.91956
31.366808 -51.994598 -412.00824
29.34218 -50.214661 -412.26102
19.094023 -49.070885 -410.24374
17.697344 -48.642693 -409.99335
-30.638443 -22.53191 -418.15039
-29.676926 -21.744026 -418.21707
-31.109341 -21.382723 -418.00943
80.06076 45.549652 -423.83997
85.675392 -46.39621 -416.44302
87.146164 -46.973709 -416.46506
-14.440826 39.913261 -402.98682
1.0935682 -34.638054 -421.85312
-0.35164326 -34.241451 -421.69495
105.77819 -30.40135 -417.50653
107.45345 -31.531727 -417.69461
101.43691 -40.882656 -398.68378
100.73735 -42.340504 -398.64896
102.31573 -43.069756 -398.74005
102.89663 -41.521381 -398.79608
104.32388 -42.291599 -398.91165
-32.657524 -27.207163 -417.97345
-31.346998 -27.286985 -418.30991
85.315857 -3.5552285 -426.388
-51.001339 -69.874474 -404.26288
-50.539062 -67.853104 -404.22751
-49.467003 -70.16713 -404.37796
-52.769348 -68.710327 -404.17703
-9.3004446 -3.2041421 -405.116
-64.021217 7.2617855 -399.18875
-63.597519 9.2820587 -399.20557
-62.153324 8.9241314 -399.40594
-61.534775 7.2136946 -399.55655
-62.842838 10.595107 -399.19339
-61.377522 10.248094 -399.38501
-60.636318 8.601593 -399.55698
-20.492794 -71.383789 -407.31833
-19.051313 -71.786964 -407.43655
-17.605156 -72.157143 -407.5936
-19.872799 -69.906952 -407.29907
-18.400501 -70.203316 -407.45981
-16.973431 -70.635384 -407.62677
-19.104311 -68.523643 -407.2963
36.822865 -45.137218 -412.49362
-24.041834 -16.361118 -418.53937
-25.508583 -15.990042 -418.38348
-24.953466 -14.175498 -418.28781
-69.116501 -6.2910132 -366.15637
-79.68779 -19.198572 -399.28433
-78.982407 -20.569578 -399.36499
-79.060555 -17.681293 -399.21848
-77.495483 -21.231367 -399.45621
-78.149521 -16.299715 -399.19
-77.42363 -17.952438 -399.34146
-76.840179 -19.695553 -399.41647
-78.724121 -14.849273 -399.12894
-76.636414 -16.636095 -399.35306
-75.921844 -18.30019 -399.47067
19.330235 -0.93849641 -406.85748
-27.615103 -13.822503 -417.81165
-26.376331 -13.742245 -418.04037
22.77487 48.325184 -406.13812
23.362091 46.858826 -406.2608
21.045076 46.399891 -406.03607
21.655842 44.933754 -406.09421
22.242964 43.472084 -406.20804
23.73176 42.836716 -406.47485
23.945381 45.39135 -406.44983
25.440056 44.754944 -406.59055
26.035889 43.281281 -406.75098
25.650484 47.302952 -406.54236
25.041908 48.767879 -406.48291
42.290951 -15.721061 -411.52289
45.006321 -16.291306 -411.64874
44.414101 -17.895555 -411.67273
44.981842 -19.314034 -411.7489
42.907032 -17.220232 -411.51251
18.121897 -16.234249 -409.33011
18.721945 -17.757452 -409.47855
16.147045 -17.501308 -409.15109
20.22764 -15.357505 -409.46484
-53.413002 -88.165955 -414.93118
-53.066742 -89.27739 -414.94147
-11.25452 44.230759 -403.32886
-12.846757 42.077587 -403.15933
-10.670129 42.775787 -403.48907
-13.432374 43.536068 -403.03217
20.679623 16.591913 -407.35101
-21.116232 38.055714 -402.26349
98.644073 -0.49749821 -428.02094
4.0965614 39.669884 -403.78403
3.4638565 38.087746 -403.81842
97.890663 -47.25053 -398.54678
95.668533 -47.566875 -398.60315
-38.667961 32.76693 -400.6004
-37.508049 23.422449 -414.81125
-35.289425 24.700369 -414.66757
-37.453552 26.788616 -414.33893
-36.762066 25.049845 -414.41565
57.402309 -44.140266 -414.39426
55.271587 -44.908409 -414.20993
56.739784 -45.521526 -414.42337
-60.056866 -83.864479 -404.18671
-59.522194 -82.246155 -404.11404
-58.726063 -84.355652 -404.3912
-55.802433 25.267307 -399.26035
-53.766792 23.184092 -399.53015
-54.366226 24.631643 -399.43179
-3.6060202 18.286123 -418.44254
-0.073097184 34.855049 -404.49011
0.31118613 36.889347 -404.40396
-84.040085 -25.135576 -398.9003
-83.256775 -26.754272 -398.98914
-82.782547 -28.269156 -399.13797
-33.024525 27.850836 -414.00882
-32.390972 26.359926 -414.14243
70.624947 -52.264351 -415.54193
72.083191 -52.852097 -415.65863
97.680641 -1.8177776 -427.88666
60.888535 57.472919 -420.92352
61.66309 58.868229 -421.17078
-9.3873644 -11.924891 -419.73642
-7.9534006 -12.325888 -419.98102
-10.019506 -13.524164 -419.73111
86.030098 -37.923794 -416.19608
87.500572 -38.509563 -416.24384
-79.797737 -28.973766 -399.60822
-78.242683 -29.287382 -399.70255
-77.68837 -27.527617 -399.7106
-79.185219 -26.855566 -399.55341
-67.90387 -31.521017 -400.93616
-67.273819 -29.682806 -400.93164
-66.380478 -31.837526 -401.11475
-65.782333 -30.373615 -401.06979
-64.236603 -30.672773 -401.2114
-67.839958 -28.229338 -400.74194
59.464428 51.34185 -420.91937
60.057659 52.947914 -420.90894
62.367176 53.668995 -421.16074
61.612713 52.29306 -421.03656
62.257915 50.792107 -421.18869
63.856606 53.288433 -421.44839
64.451065 51.767796 -421.50073
-5.3736458 -12.383851 -420.28085
-7.3484921 -13.846425 -420.16217
-5.9008994 -14.210335 -420.3042
49.920921 -58.223404 -424.04797
-5.7710814 26.901226 -417.668
-6.638763 25.777283 -417.67343
68.580696 -31.749359 -414.56384
67.722923 -32.74424 -414.63916
67.15094 -31.300346 -414.41943
-6.5135674 -34.998669 -421.30209
-6.9453154 -37.162395 -421.17374
18.564316 0.5385167 -407.3287
17.049667 1.1728189 -407.06793
17.059467 1.1604352 -407.03156
-20.511251 34.894432 -415.66443
-22.590778 33.686413 -415.50549
22.198456 4.2519231 -406.60468
47.727779 -62.174503 -423.58652
-90.30761 16.884668 -396.64252
-88.208916 18.350138 -396.75494
-87.727364 16.885317 -396.88257
-89.787567 18.667856 -396.5849
-88.974937 20.004559 -396.5997
-86.098984 16.591625 -397.04315
-85.879807 19.337015 -396.81638
-84.550911 15.716732 -397.24936
-84.333 18.752054 -397.04117
-83.836243 17.290119 -397.2056
-87.405815 19.67658 -396.72702
-10.159785 -46.962914 -426.30795
12.863822 -48.931557 -409.51962
12.253356 -47.40976 -409.47345
14.363708 -49.569366 -409.71701
14.774294 -47.559303 -409.76462
74.339966 35.310219 -411.20352
75.781876 34.919617 -411.43439
73.572723 33.971077 -411.21417
75.263893 32.838924 -411.45422
-68.045799 -5.3311763 -366.12576
-66.720947 -5.6562595 -366.42963
7.4757957 46.513859 -404.23923
9.5328789 47.466305 -404.75623
8.038271 45.051685 -404.56854
-9.368494 26.314375 -417.06821
12.342202 -23.261988 -408.6105
13.840746 -23.89612 -408.83936
15.352377 -24.599674 -409.02872
15.625243 -22.269407 -409.18777
-0.33021957 -4.10041 -406.20117
2.1473937 -4.1354284 -406.64697
1.5634433 -2.676245 -406.47025
0.08647237 -2.0860493 -406.21365
39.434494 53.256004 -407.38123
43.763695 51.829475 -407.72046
43.195808 53.307907 -407.45895
41.674156 53.944668 -407.37308
38.824951 51.682613 -407.34964
39.413879 50.20911 -407.49078
40.918835 49.572727 -407.64471
40.955711 52.618393 -407.43903
41.537247 51.142876 -407.58646
42.425659 48.93721 -407.80109
43.030186 50.508736 -407.79074
-19.750013 -79.317764 -407.4187
-19.153765 -77.842697 -407.63031
-20.601215 -77.466736 -407.4252
-21.190323 -78.890755 -407.35562
-12.079029 -81.666267 -407.2081
-50.507759 -61.613155 -403.05136
-49.704983 -60.278988 -403.0759
-49.068657 -61.981815 -403.5386
84.444496 -4.6620297 -426.06982
42.577602 -62.271938 -413.03094
43.89209 -62.679977 -413.01205
77.616463 -29.455076 -415.29288
76.99897 -27.868971 -415.23685
76.352104 -26.300245 -415.14084
-57.715485 -40.65556 -401.70187
-56.090168 -41.225071 -401.94681
-55.597927 -39.519527 -401.92575
-54.6814 -41.644955 -402.14194
-54.092678 -39.910793 -402.08853
-53.357513 -38.209862 -402.05731
-52.614738 -40.190243 -402.27808
-57.22636 -38.615192 -401.68076
-54.908062 -37.965324 -401.85703
-51.910976 -38.607796 -402.23672
-53.234776 -42.03138 -402.36514
-9.5286531 -61.114426 -408.38544
-8.6980629 -60.100975 -408.42514
-8.0596523 -61.416447 -408.4426
41.801895 4.0112305 -410.38068
42.39809 2.5326173 -410.52628
43.004566 1.0494356 -410.64972
22.003965 -4.4823613 -407.07721
22.868668 26.344448 -374.00854
22.434486 -60.427723 -411.31973
22.847589 -58.400642 -411.29257
24.26623 -58.878212 -411.54813
25.737242 -59.473167 -411.78464
-73.751717 -20.331833 -399.76141
-72.266205 -20.681997 -399.96527
-71.739052 -22.169071 -400.02094
-70.761215 -21.023384 -400.09003
-75.338631 -19.744345 -399.5408
-74.329712 -15.645635 -399.60129
-73.828117 -17.137156 -399.71149
-73.157837 -18.521276 -399.83517
-71.72068 -18.911015 -399.96582
72.448578 -41.42215 -415.6622
70.940033 -40.910122 -415.41693
74.41597 -40.088203 -415.7211
73.885208 -41.875061 -415.79132
71.53035 -39.161053 -415.3772
72.971466 -39.606411 -415.54376
-37.255051 29.362471 -414.12421
-38.661671 29.739168 -413.87534
75.416107 53.778576 -422.76382
-80.056549 11.452733 -397.76642
-79.271431 12.778284 -397.75006
-78.454971 14.112559 -397.83145
-77.626343 11.949666 -397.85681
-76.935829 13.513676 -398.0058
-76.131012 11.845822 -397.99146
82.240913 -25.364618 -414.97055
82.094452 -28.087692 -415.09225
82.890266 -26.950205 -415.01086
-34.078751 -50.586563 -404.97693
-37.247562 -52.359203 -404.77283
-35.789242 -52.723511 -404.94473
-40.016251 -48.884918 -404.37576
-38.552368 -49.242287 -404.53668
-37.936787 -50.655254 -404.64084
-36.465485 -51.006073 -404.79596
-34.689926 -49.15028 -404.92657
-37.749237 -47.837418 -404.59232
-36.236702 -48.525475 -404.75449
-35.679878 -46.735188 -404.70419
60.261082 36.01284 -410.2243
57.273293 33.656239 -409.78876
59.399799 34.576565 -410.03558
56.424015 35.878246 -409.68378
57.956432 35.248871 -409.91946
58.7607 36.599075 -410.10767
60.876297 34.225464 -409.86719
33.816303 -25.188663 -410.51614
35.775677 -27.077063 -411.1001
34.355015 -26.590883 -410.76532
32.117748 -27.112768 -410.48547
32.110718 -27.110331 -410.55475
87.451721 -5.7181568 -426.71503
-1.5571586 -65.004875 -408.98749
-0.25065643 -68.110695 -409.21423
-0.95866388 -66.511879 -409.08197
15.780039 -50.106335 -410.07971
16.296684 -48.263813 -409.90906
-6.2924938 -71.791512 -408.72687
-8.5782576 -72.545418 -408.57532
-8.5565147 -69.61132 -408.4368
-7.835372 -71.201927 -408.5903
-6.2774568 -68.865326 -408.61139
-7.906353 -67.942787 -408.48871
-48.606583 9.3440733 -413.84769
-32.442558 -10.347942 -403.0054
-30.943583 -10.906852 -403.23715
-31.861879 -11.87975 -403.19125
61.62833 -55.897831 -424.80475
55.223045 -47.891953 -414.31467
56.093784 -46.982521 -414.34503
54.639515 -46.440258 -414.25864
-14.634263 -51.300911 -406.9808
-14.040896 -52.750759 -407.12201
-16.207756 -53.694195 -406.97415
55.284084 -62.361355 -423.82248
54.708866 -60.696133 -424.30084
-47.782665 13.764411 -413.84152
49.461098 50.031208 -408.43613
51.782688 50.802349 -408.96487
50.764439 49.872982 -408.58057
52.060223 49.443096 -408.84085
51.640198 47.6632 -408.68335
48.883137 48.468433 -408.47815
49.435734 47.006317 -408.65582
-3.880825 25.172327 -417.66931
34.506577 -45.454578 -412.00677
34.068047 -47.549133 -412.37344
33.613445 -46.41193 -412.1777
49.133667 67.373299 -419.07248
49.724396 65.873367 -419.30841
19.407221 10.666417 -407.14993
19.420755 10.666487 -407.09338
50.169434 -55.64209 -423.76804
-45.255325 1.4511476 -413.99963
23.228182 -17.406258 -408.20667
24.809624 -17.955528 -408.37
9.0334673 -51.890938 -409.40048
-23.304272 -77.160408 -407.26068
-22.644283 -75.581779 -407.27142
-21.221367 -76.054749 -407.39755
-22.208199 -73.601311 -407.16653
-20.698547 -73.78334 -407.30356
-20.69949 -73.783089 -407.31342
40.602684 -48.261093 -412.48376
55.806709 50.771946 -420.66858
53.585358 52.909286 -420.23212
54.369762 54.294868 -420.36523
54.259228 51.414207 -420.405
-30.608124 -40.277275 -405.03293
-30.207458 -41.247421 -405.10364
68.875938 -54.116161 -415.50153
67.467575 -53.760544 -415.49142
-46.519276 23.661022 -413.30344
-43.872929 -32.891136 -403.14474
-40.980213 -33.653961 -403.45468
-42.420826 -33.267773 -403.27753
-41.821053 -31.410505 -403.2406
-40.285492 -32.026333 -403.45361
-16.285717 -38.764656 -420.38437
-15.671144 -40.186939 -420.59985
-18.292446 -40.167358 -420.27069
-17.736694 -38.322823 -420.15683
38.426594 -30.663651 -411.67889
36.353962 -28.554359 -411.32825
34.766426 -30.720028 -411.24405
36.933346 -30.010181 -411.48651
-68.585579 -63.475739 -402.63535
-67.800255 -65.038452 -402.85184
-67.751907 -62.14098 -402.61664
-66.18898 -62.435204 -402.76379
-65.411911 -64.381729 -402.94342
-1.8838736 30.211535 -405.05206
-2.363785 31.436455 -405.03946
20.006874 -42.218647 -410.36963
20.569525 -43.619968 -410.46906
22.044348 -44.26004 -410.7822
50.08828 29.794741 -409.52786
48.016727 31.896488 -409.28146
49.520596 31.255228 -409.42773
50.246395 32.577156 -409.45135
51.550224 29.377028 -409.69058
51.720657 31.953373 -409.58542
79.252518 -39.710083 -415.91995
81.437561 -38.980305 -416.06732
82.067917 -40.517029 -416.07846
81.468239 -42.125648 -416.11942
79.953308 -41.462444 -416.04108
93.309479 5.9670601 -427.05414
95.450638 7.1846652 -427.25079
-7.9635458 -15.449807 -420.06857
-6.7403269 -15.303219 -420.25952
11.923577 -25.345909 -408.87039
13.41607 -25.964005 -409.04105
14.83145 -26.426682 -409.22415
58.096622 9.870676 -411.65289
58.942917 10.858691 -411.49011
-30.544523 -75.17028 -406.35602
-29.103045 -75.582344 -406.57895
-29.995132 -73.4049 -406.34351
-27.639431 -75.945702 -406.75424
-28.542461 -73.786858 -406.54883
-31.105413 -76.965813 -406.35693
-29.649965 -77.296989 -406.64822
-28.230015 -77.812653 -406.83545
9.6517382 -71.448143 -409.81458
8.153141 -70.791336 -409.75299
-55.708641 -16.435247 -400.96735
-54.14156 -17.025999 -401.17099
-56.276012 -14.969205 -400.88971
-54.748669 -15.278497 -401.05972
-75.86409 20.289598 -396.54736
-74.182854 19.751398 -396.75433
-75.808304 20.25857 -395.86075
-1.2837729 28.751627 -405.03253
-0.71517622 27.284462 -405.24063
-0.094946578 25.833101 -405.22952
-9.4832783 39.861809 -403.67743
-10.084203 41.320259 -403.63882
68.651375 -16.428101 -414.0451
69.200928 -17.822475 -414.14844
67.600334 -20.045071 -414.27072
66.895508 -18.29991 -414.11908
-68.619263 -1.0138714 -366.06631
-32.345409 29.455702 -414.22491
-33.848572 29.83128 -414.04575
-10.194341 28.315107 -417.13754
-9.1789465 28.91905 -417.25787
-10.633804 29.306501 -417.13672
20.33812 -21.731258 -409.42795
20.861589 -19.923613 -409.40402
21.834023 -22.400158 -409.71292
82.633217 -29.381363 -415.54324
-23.427406 -17.78091 -418.79578
-22.86138 -19.352306 -419.04297
-21.465111 -16.477224 -418.86145
-20.883392 -17.970358 -419.20319
-19.954716 -16.736176 -419.03326
18.914444 14.930425 -407.12726
19.48448 13.466963 -407.26898
58.709362 63.036549 -420.46158
59.289501 61.509212 -420.51056
50.949696 59.364952 -418.6897
65.764267 -52.595531 -415.42389
66.883408 -52.339951 -415.38367
-13.515778 -2.1216516 -404.46997
-20.755018 29.223333 -415.87955
-21.376745 30.706102 -415.64209
-23.076717 28.479084 -415.72751
-24.233347 31.481327 -415.38501
-23.648767 29.98596 -415.43796
25.91046 27.519876 -374.03467
26.82128 -50.184437 -412.21722
27.443785 -48.65374 -412.21747
26.347908 -48.980938 -412.08612
-59.268276 -94.377098 -414.79514
-58.718288 -92.668625 -414.81595
-58.21236 -93.907738 -414.91718
79.123787 -11.298554 -414.30774
78.518295 -9.7880259 -413.88531
75.876205 -9.4745178 -413.49072
76.537132 -11.058898 -413.73956
76.562431 -11.078893 -413.4249
-11.666918 39.213821 -403.47379
-10.404922 38.985447 -403.60544
-10.875863 40.215298 -403.46582
-39.554195 -40.275349 -403.82706
-38.088066 -40.543468 -404.04047
-37.532063 -38.815842 -403.9928
-38.936111 -38.503643 -403.88217
-36.646591 -40.982162 -404.20016
-35.998936 -39.457478 -404.15292
-36.654888 -40.978725 -404.26578
78.577011 37.4547 -411.75677
77.803055 36.109386 -411.67377
43.965977 -50.527863 -412.95383
45.386883 -51.00288 -413.17184
-52.225296 -57.47398 -403.08844
-52.170677 -57.497959 -402.60892
6.6675792 -15.325235 -407.8544
5.649199 -16.306276 -408.36157
-10.555563 32.295746 -416.74829
-11.896063 32.549366 -416.58606
-12.635261 31.208803 -416.65936
11.240149 52.429901 -404.92282
11.808458 50.939899 -405.01907
13.297282 50.300053 -405.17297
9.7430344 50.002949 -404.58081
11.220108 49.367207 -404.85428
13.890389 48.841595 -405.29471
-9.4406862 -67.344093 -408.27542
-9.1872005 -64.749016 -408.0751
-8.4271526 -63.394569 -408.10132
-7.6716027 -65.467941 -408.26819
-7.0223985 -63.826431 -408.21198
-4.8152351 21.306564 -417.9472
-6.2392678 21.678823 -417.77695
-58.424011 -96.339035 -414.86868
-59.473717 -49.028259 -402.55084
-58.783554 -50.705795 -402.73459
-57.249168 -47.757233 -402.61853
-58.775562 -47.466129 -402.44943
74.229515 -33.460934 -416.15015
-58.847996 10.501319 -399.59567
-59.48724 11.907571 -399.41766
-57.036613 12.417645 -399.65204
61.727966 31.982887 -409.85538
60.137779 32.872871 -409.83331
57.468239 30.159691 -409.85892
58.056019 28.646872 -410.01566
57.902679 32.179077 -409.76874
59.400406 31.547632 -409.89914
60.017742 30.056244 -410.03064
60.60537 28.576944 -409.81616
52.650234 58.562996 -419.87177
51.556381 57.906391 -419.2074
31.953867 -20.691769 -410.37708
29.693275 -21.095758 -410.12418
-67.310463 -42.982922 -401.69238
-66.90477 -44.251968 -401.74045
-65.636932 -43.846855 -401.77576
51.584446 10.584565 -410.72626
51.002167 12.068904 -410.52539
-61.804592 -50.028698 -402.51855
-61.259869 -51.535255 -402.66003
-60.29657 -50.352104 -402.72589
-61.164619 -48.167477 -402.47919
21.316769 15.10843 -407.40195
38.844276 -13.232605 -410.9982
41.098145 -12.749825 -411.2944
41.661453 -14.191465 -411.44028
39.911919 -9.7974949 -410.99042
40.485935 -11.238681 -411.12329
38.250004 -11.725898 -410.74942
42.006519 -57.773373 -412.83813
39.934353 -58.728382 -412.08481
2.4487848 40.372879 -404.3436
-17.220631 40.669842 -402.54669
-18.694021 41.302685 -402.37814
-46.807644 -3.3850088 -401.41733
-46.132183 -1.8285816 -401.3757
-44.678719 -2.1693509 -401.5455
-45.22456 -3.9594741 -401.5856
-44.638916 -5.4143209 -401.63983
-43.118793 -6.0322289 -401.82764
-46.817753 -6.3530064 -401.50571
-45.202156 -7.2272182 -401.59146
-48.288189 -2.7353196 -401.23581
-47.430691 -4.9200683 -401.43781
-8.6936197 21.4841 -417.19162
77.207115 15.606487 -412.55469
77.449997 17.968241 -412.40396
75.662399 16.053461 -412.28079
75.252296 13.974942 -412.38348
-8.7729845 -16.486118 -419.76599
-72.753815 -33.384949 -400.53619
-71.596375 -32.390781 -400.5936
-70.997116 -33.817333 -400.73846
-67.852577 23.101652 -398.12363
-67.203026 24.660786 -398.11459
-67.709259 26.110157 -398.05341
-69.38932 23.696894 -397.90338
-68.702408 21.757627 -398.11136
-64.101295 13.727961 -398.91846
-64.696701 15.168843 -398.85754
-62.630581 13.379151 -399.07031
-62.11655 15.157952 -399.03992
-64.824524 12.414369 -398.82974
-63.372345 12.059372 -399.02841
-60.962563 12.258759 -399.28754
98.224899 -5.0391841 -416.13419
97.431763 -6.3727612 -416.1181
43.413837 -6.2236834 -411.01074
41.437645 -7.4344983 -410.96191
45.581928 -20.822605 -412.00055
48.167397 -24.17308 -412.37833
46.17033 -22.275433 -411.99701
47.618286 -22.77734 -412.18027
49.226395 -20.638166 -412.20898
47.78442 -20.114023 -411.99207
49.792328 -22.039877 -412.40576
13.080377 -15.944927 -408.54959
13.646347 -17.371479 -408.66772
11.410303 -17.941755 -408.53824
13.059024 -15.944592 -408.69119
13.056928 -15.936662 -408.72015
24.369217 -46.918484 -411.05176
24.977552 -45.357731 -411.0123
23.479431 -44.739899 -410.95532
60.683365 64.505478 -420.54013
62.141281 64.123848 -420.82227
61.247707 62.990669 -420.69128
72.375107 37.24155 -411.15018
16.440638 9.1414537 -406.16083
15.89143 10.628451 -405.90137
-29.396408 -43.20153 -405.20807
-28.888025 -44.364738 -405.28067
-78.63623 26.96125 -396.33578
-77.036934 26.17063 -396.49103
-76.321686 24.702093 -396.62296
-75.517578 26.042849 -396.66074
-78.930771 26.763483 -396.15247
-77.066063 25.82749 -396.51465
-76.336296 24.685307 -396.34265
-78.659653 24.273882 -397.11609
5.7812538 -56.320827 -409.96371
6.7904634 -55.822544 -410.0426
5.2994599 -55.196434 -409.7868
6.3214626 -54.558937 -409.78421
91.878517 2.9678276 -426.96274
91.059425 5.0104203 -426.83713
92.516357 4.6035867 -427.02811
91.721947 6.4188843 -426.80078
89.472183 5.8886375 -426.52438
90.417709 3.3766749 -426.83136
88.974281 3.7755551 -426.62946
104.04778 -32.542656 -417.34744
105.50721 -32.961342 -417.47488
9.7544861 40.667931 -405.1781
11.267036 40.034039 -405.43259
13.964398 39.481277 -406.28314
11.800939 38.593121 -405.65714
-19.604874 -43.377899 -420.0177
10.971456 1.5669897 -407.28616
10.463474 -0.24066906 -407.32629
11.04817 -1.6907883 -407.46619
12.441318 0.86638373 -407.54642
13.10271 -0.53458619 -407.70883
9.0092621 0.35834783 -406.8956
8.8652487 -2.3842444 -407.18259
10.965096 1.5695763 -407.34778
26.883751 -44.018539 -411.31451
27.48469 -45.458591 -411.29681
28.825241 -45.775951 -411.59891
67.861488 10.518818 -412.07227
69.352303 9.9126835 -412.20807
53.856892 -44.449127 -414.0607
44.688492 -9.4313908 -411.51373
42.638607 -10.399758 -411.30313
106.13821 -24.804232 -418.27045
62.246067 -50.088707 -415.12329
61.868481 -49.107231 -415.03931
57.97419 -39.462276 -415.12027
57.057224 -40.267597 -415.08569
56.616989 -39.165497 -414.9118
55.556992 -39.615604 -414.90195
-85.304413 -21.755777 -398.19498
-84.722336 -20.27125 -398.1687
-83.809731 -22.411102 -398.37866
-83.204735 -20.614843 -398.28705
-82.289268 -22.751045 -398.49619
-81.489952 -21.134357 -398.43872
105.44438 -26.617867 -417.75104
43.831467 -53.210052 -413.0686
43.193577 -54.712181 -413.04443
4.2832756 36.574337 -403.6857
5.6166344 36.085697 -404.20236
4.1006851 36.58424 -403.55554
5.9434834 37.588486 -404.34225
4.0840631 36.618404 -403.79877
-2.4901168 34.661873 -404.65878
-1.5594028 35.502296 -404.63791
54.669964 -54.357208 -424.46783
-8.0935984 42.502708 -403.83395
-5.8804331 43.189243 -403.91348
-8.682416 43.959316 -403.71454
-5.3063397 41.729168 -404.08435
-7.4977059 41.042217 -403.90085
64.492287 -18.493858 -413.87106
65.195213 -20.234766 -414.00464
65.767815 -21.708601 -414.16348
-29.753229 -31.251476 -418.88245
-31.780277 -32.758293 -418.59171
45.237892 -10.699955 -411.634
43.218121 -11.86986 -411.49677
-83.594635 20.066727 -397.07632
-82.828133 18.4238 -397.2616
-84.122742 21.514381 -396.9733
-80.874535 19.845781 -397.40414
-80.213135 18.431692 -397.55911
-78.814415 21.034094 -397.49368
-82.498535 24.17185 -397.03931
-82.047951 22.715912 -397.11435
-81.350151 21.31041 -397.29337
-79.390999 22.737665 -397.3483
71.388298 67.373566 -422.14417
-39.800034 35.726574 -400.46158
-41.491318 33.57222 -400.267
-40.025955 33.210403 -400.42096
96.982613 -30.950836 -416.565
-50.062588 19.505499 -413.20761
-49.666264 18.506769 -413.31467
55.143494 -19.948538 -413.03729
53.183933 -21.300703 -412.94125
55.692745 -21.347958 -413.11328
53.684559 -19.457113 -412.90158
51.696491 -20.649881 -412.74496
17.564302 -11.841753 -408.83862
19.049471 -12.454793 -408.92242
16.95643 -10.374746 -408.96835
16.865349 -13.19229 -408.89536
26.528065 23.057774 -374.4964
-42.740738 -35.483223 -403.34415
-41.974033 -37.447773 -403.51907
-41.198032 -36.10643 -403.51758
-40.450802 -38.099693 -403.70596
-39.705437 -36.797905 -403.75562
-38.959801 -35.47863 -403.82159
-39.519379 -33.986568 -403.65988
-13.505588 -11.213929 -419.03098
-12.038664 -11.596074 -419.15863
-14.112381 -9.6637878 -419.06366
-12.06011 -11.592338 -419.30264
9.1646175 26.949429 -404.94077
9.6616373 25.510832 -405.41336
13.764688 15.533581 -406.18979
64.081192 -58.925476 -425.06638
83.179008 -30.793633 -416.52548
82.322495 -31.831251 -416.53354
83.542557 -31.746986 -416.59482
-11.302936 -53.363239 -407.40106
-10.570204 -54.99147 -407.3511
-9.2631769 -52.172913 -407.72955
-8.6763916 -53.722549 -407.71555
-22.725592 -62.856838 -406.66238
-21.140345 -63.836735 -407.15744
-20.457224 -62.134415 -406.98865
-19.819778 -64.107735 -407.46216
-19.004723 -62.948204 -407.42917
-19.689068 -60.835354 -406.80423
-21.212536 -60.114948 -406.62015
77.493774 48.740417 -423.27646
26.836777 -7.9419365 -409.31384
28.352785 -5.6006975 -409.42245
28.931673 -7.029654 -409.55093
75.830811 -3.1022773 -413.34534
77.293701 -3.5492043 -413.48633
78.886444 -4.028604 -413.85605
76.159607 -0.7890324 -413.20068
77.69593 -1.4534745 -413.40182
-45.222477 19.719193 -414.55743
-44.289375 20.969276 -414.17657
37.370365 55.365589 -407.06885
38.84375 54.726566 -407.23962
36.74659 56.730911 -406.97305
39.583763 56.055859 -407.18073
41.302273 57.963169 -407.19592
41.067093 55.415527 -407.30084
38.983257 57.518234 -406.99551
42.821739 57.350918 -407.32504
40.705887 59.426693 -406.92224
38.389072 58.989254 -406.84378
81.009079 -56.440659 -416.3718
-49.197178 23.89856 -412.85739
13.393798 19.840363 -405.99664
-9.9301844 -7.3381071 -419.17969
-38.165073 -5.8940129 -402.3219
-37.556141 -7.3330116 -402.45078
-36.075089 -7.6610994 -402.56131
-35.758575 -5.4048686 -402.49899
-36.366314 -3.9633496 -402.46387
-34.241756 -6.0308585 -402.64221
70.065575 -57.060429 -415.58472
82.335533 -2.4706173 -425.9502
10.01602 -23.715645 -408.48486
10.838571 -22.610262 -408.54514
9.5298576 -22.467182 -408.44464
8.8153334 -23.449799 -408.5228
98.152946 -20.92326 -416.30582
97.565987 -22.716709 -416.31024
96.092072 -22.105886 -416.15155
52.00639 40.601437 -409.09888
53.431904 40.204529 -409.20422
49.903278 39.662991 -408.95218
51.158569 36.469913 -409.16794
51.469925 38.778416 -409.13641
52.994892 38.142921 -409.28989
53.680862 36.422737 -409.41263
55.020317 39.335911 -409.32318
55.642956 37.604984 -409.56445
77.137451 -56.133774 -416.15048
75.672615 -55.630272 -415.97226
77.396973 -53.760853 -416.14758
29.611439 -26.9729 -410.31281
29.561195 -26.959354 -410.49167
66.615929 72.649918 -420.88364
73.102173 0.54082441 -413.08423
71.694008 0.90445644 -413.09161
72.494812 2.0615797 -413.01312
-16.509832 41.999454 -402.6178
-15.023725 41.376358 -402.83008
-19.310797 -9.5760469 -418.51974
25.513042 10.883887 -407.78061
27.068773 13.011224 -408.14517
26.993673 10.234906 -408.02792
27.725082 11.588152 -408.29352
29.066118 11.116955 -408.40814
-60.982315 -13.205381 -400.28925
2.6562531 -57.773033 -409.5065
-90.360466 23.360506 -396.50159
-89.713463 21.927715 -396.51071
-88.063484 21.350309 -396.6369
-87.915939 24.109526 -396.5495
-86.404282 23.768936 -396.68909
-85.749123 22.090803 -396.81387
-85.641792 25.095549 -396.71246
-84.944008 23.423983 -396.84131
-83.219078 25.592976 -396.94016
54.068012 -48.058594 -414.09634
52.721737 -47.796722 -413.92886
27.514473 37.076363 -379.60806
-34.122898 -47.331959 -404.88922
-32.593399 -47.993515 -405.02039
-31.99148 -49.427948 -405.16983
-30.2953 -47.287956 -405.23233
-30.866137 -45.783745 -405.12784
-59.130299 -1.5828669 -399.73019
-57.68932 -1.8881185 -400.04758
-60.048111 0.90186256 -399.42978
-58.527813 0.29923898 -399.7688
-60.051895 0.90392727 -399.46747
-52.559757 4.5982504 -400.39099
-51.790577 5.9249773 -400.45883
-51.124634 4.2298832 -400.55463
-50.477783 5.5229516 -400.81238
-49.754421 3.8453257 -400.87549
6.7366776 18.089371 -406.32425
7.3283086 16.625969 -406.41687
63.763748 -35.285633 -414.81519
102.18249 -24.548229 -417.67465
101.15829 -25.333393 -417.62503
100.19344 -25.970112 -417.55463
63.045143 34.865437 -410.26514
64.073647 35.871708 -410.68671
-45.367073 -64.326515 -404.09695
-49.131977 -64.966682 -403.36398
-47.493732 -65.899323 -403.59518
-46.910995 -63.726368 -403.56296
-48.476604 -63.496132 -403.3869
8.0609188 48.09639 -404.38791
7.6039791 49.561329 -404.44415
66.415085 7.8086967 -412.2579
65.777176 9.4151649 -412.08496
67.304176 8.7394524 -412.22894
99.753662 -24.787518 -417.26495
102.45147 -46.490921 -398.80127
105.32159 -47.70364 -399.00073
105.06121 -44.020615 -398.99945
103.87385 -47.083427 -398.89249
104.54012 -45.616379 -398.88867
103.06042 -44.980999 -398.75003
103.03915 -44.954174 -398.73508
-42.734966 -74.150604 -404.99539
-42.032806 -72.902428 -405.24066
-42.044353 -75.880791 -405.03391
-41.260418 -74.531654 -405.09348
-40.516396 -73.252037 -405.26831
60.066311 59.488327 -420.74542
60.837326 60.868938 -420.80637
86.355583 -6.5924973 -426.07309
0.095967352 46.723907 -404.39902
2.3183961 -37.210957 -412.25378
56.03828 27.459984 -410.06787
53.538696 27.502192 -410.00632
54.191494 25.800472 -410.05075
55.45686 28.927729 -409.95511
53.947296 29.570951 -409.85641
56.61945 25.992201 -410.01096
58.707203 27.129087 -410.10648
55.821213 -43.292202 -414.35492
55.264633 -41.869881 -414.66434
10.665135 44.537193 -405.24539
12.962204 44.981125 -405.47784
10.101027 45.990971 -404.93509
11.790602 47.90884 -405.15033
12.375151 46.444206 -405.29675
-34.576557 -43.146267 -404.69031
-32.477505 -41.942032 -404.89084
-35.160351 -41.68903 -404.51727
25.62113 -23.4844 -407.25006
11.129614 -50.743027 -409.48428
10.538116 -49.347965 -409.37567
