ply
format ascii 1.0
comment PCL generated
element vertex 1502
property float x
property float y
property float z
element face 0
element camera 0
property float view_px
property float view_py
property float view_pz
property float x_axisx
property float x_axisy
property float x_axisz
property float y_axisx
property float y_axisy
property float y_axisz
property float z_axisx
property float z_axisy
property float z_axisz
property float focal
property float scalex
property float scaley
property float centerx
property float centery
property int viewportx
property int viewporty
property float k1
property float k2
end_header
105.27409 18.938417 -473.43146
108.86827 -56.864956 -482.70035
108.95209 -55.617992 -482.53387
108.92461 -58.123627 -483.42001
109.71609 -54.172073 -482.73563
109.86837 -57.292072 -483.26755
110.04737 -56.087627 -483.18045
111.09317 -53.603943 -485.36954
111.10497 -57.673836 -486.45038
111.16442 -55.508427 -485.82599
111.07251 -54.402374 -486.59195
111.279 -56.594402 -486.44431
108.5368 -52.011639 -481.7738
109.39777 -48.508183 -481.66736
109.77419 -50.698429 -482.10577
109.88891 -52.591839 -482.48569
110.60302 -48.147125 -484.69717
110.72706 -50.063854 -484.7821
110.88783 -52.238579 -485.29218
109.06081 -42.564816 -480.74908
109.07212 -44.449039 -481.03979
109.36193 -46.084316 -481.3931
110.21693 -43.247036 -483.78857
110.37385 -44.879055 -484.08884
110.47774 -46.490662 -485.02798
108.54104 -38.221489 -480.16904
108.74557 -40.670029 -480.39749
109.82197 -37.552162 -482.40143
109.67136 -36.932484 -483.7413
109.87311 -38.879925 -483.27777
109.94392 -40.21151 -484.15375
110.09952 -41.615433 -483.45743
109.3272 -32.111282 -481.5795
109.49267 -34.00161 -482.09515
109.61361 -35.614849 -482.69986
109.0966 -30.214754 -481.20016
43.30481 -99.262192 -473.62634
43.404221 -100.88908 -474.07437
44.455959 -100.32008 -474.50455
45.515541 -99.21965 -474.6568
45.64782 -100.36703 -474.79944
46.704159 -99.005707 -474.77359
46.841637 -100.48296 -474.91452
44.295727 -97.120422 -473.55945
44.358177 -98.264252 -474.06784
45.327118 -95.690521 -473.50964
45.371601 -96.854744 -474.12534
45.465702 -98.046799 -474.45386
46.43544 -95.006348 -473.80728
46.512173 -96.468491 -474.37662
46.575985 -97.674706 -474.63812
48.107048 -101.41307 -475.18625
49.08194 -99.351814 -475.13477
49.221313 -100.89622 -475.33817
49.423988 -102.34971 -475.31076
50.394714 -101.35596 -475.64984
50.518848 -103.14925 -475.34076
51.355515 -99.02845 -475.68283
51.490799 -100.63438 -475.92856
51.615658 -101.97301 -476.07007
51.822453 -103.35487 -476.00275
47.590847 -94.256454 -473.68695
47.561897 -95.269524 -474.3519
47.672604 -96.866623 -474.72235
48.687912 -93.958977 -474.03308
48.689064 -94.794052 -474.5517
48.918621 -97.692741 -475.00842
49.807598 -93.758621 -474.34741
49.841778 -95.261894 -475.01654
49.953503 -96.563889 -475.16019
50.89819 -94.203995 -474.99628
50.972218 -93.37764 -474.35681
51.19175 -97.38707 -475.50763
52.089054 -93.502731 -474.74133
52.084675 -94.377205 -475.32346
52.151989 -95.251488 -475.52319
55.324268 -104.29404 -476.85355
52.684746 -101.13526 -476.22897
52.806652 -102.48929 -476.41702
52.977898 -103.82537 -476.37366
53.773968 -100.33585 -476.36371
53.923958 -101.978 -476.58228
55.158997 -102.76165 -476.86404
55.957985 -98.979782 -476.71695
56.077816 -100.25531 -476.83463
57.316975 -101.13181 -477.18784
57.418343 -102.38208 -477.39615
57.589909 -104.06894 -477.49936
53.254139 -93.754807 -474.96097
53.342243 -95.742188 -475.87878
53.455029 -97.076195 -476.05533
53.608364 -98.643303 -476.16669
54.357121 -94.192055 -475.36136
54.441677 -95.00396 -475.94565
55.594158 -94.809052 -475.64978
55.653244 -95.551971 -476.15228
55.734421 -96.525688 -476.45233
55.879688 -94.033112 -475.01306
55.822735 -97.540932 -476.62692
56.840466 -95.595673 -475.92209
56.948196 -96.76532 -476.55353
57.014301 -97.937111 -476.81567
58.020962 -96.679031 -476.07391
58.098103 -97.507088 -476.68387
58.81752 -104.55666 -477.62039
60.092667 -104.76345 -477.26196
58.296299 -98.629883 -476.90036
58.361614 -99.755173 -477.16638
58.665649 -103.26411 -477.66599
59.504025 -98.965942 -476.54276
59.551144 -99.759071 -476.96503
59.62944 -100.80851 -477.41895
59.72823 -102.19279 -477.63138
59.881687 -103.48746 -477.59033
77.045219 -54.823193 -471.94739
77.851135 -53.133476 -473.30179
78.66642 -50.158913 -474.79703
78.959106 -51.020275 -472.73032
79.776581 -45.67173 -471.58316
78.289436 -41.687588 -470.59521
83.40419 -6.0016756 -468.69717
83.551933 -7.6209621 -468.89932
84.765488 -8.6349688 -469.35623
85.647827 -4.5925307 -468.95358
85.705589 -6.1819 -469.23773
86.027946 -9.4039125 -469.80411
82.888809 0.42219827 -467.59235
83.021805 -1.1879337 -467.90955
83.144485 -2.7872846 -468.16165
83.291557 -4.4037848 -468.40784
85.243835 0.73674506 -467.8847
85.353172 -0.85813099 -468.15985
85.48793 -2.4601874 -468.505
82.481857 5.755619 -466.56555
82.58844 3.6500821 -467.06216
82.784889 2.0204811 -467.28659
83.739235 4.7327652 -467.06705
84.842079 6.1000285 -467.06665
85.004715 3.9535024 -467.3967
85.098198 2.346168 -467.62903
86.086624 5.0563354 -467.42484
82.017197 10.827359 -465.48587
82.163559 9.49652 -465.86987
82.288551 7.3597422 -466.23468
83.307671 10.602167 -466.07898
83.41433 8.4795294 -466.40887
84.432465 9.8554602 -466.39398
84.687004 7.7079992 -466.79718
85.566216 10.948199 -466.34979
85.780785 9.0697136 -466.75635
81.8032 14.140706 -464.04276
81.90126 12.622464 -464.70911
82.807419 16.753263 -464.8396
82.912277 15.401614 -465.01962
82.959579 14.326745 -465.18274
83.052994 13.000776 -465.48459
83.141785 11.948857 -465.75537
83.942314 15.986239 -465.3006
84.123932 14.923296 -465.48495
84.129868 13.580079 -465.69687
84.327042 11.985244 -466.01132
85.12635 16.820375 -465.35077
85.24826 14.403213 -465.78702
85.481522 12.809131 -466.04602
86.366066 15.775037 -465.72598
82.330566 22.341915 -463.79849
82.435555 20.761618 -464.18158
82.583099 18.348089 -464.53915
83.708061 19.982794 -464.50757
83.882309 17.593723 -465.01532
84.710449 22.383675 -464.01636
84.984718 19.219776 -464.93689
85.953926 21.637127 -464.55417
86.199463 18.193827 -465.35602
87.089569 -7.2569704 -469.60193
88.122795 -5.8760958 -469.61584
88.36554 -8.0439291 -469.91486
88.419846 -9.6146851 -470.17267
89.285263 -4.7947841 -469.64499
89.396088 -6.9276628 -469.97104
90.511543 -5.829792 -470.0188
90.707291 -7.7164536 -470.29242
90.819092 -9.59937 -470.52643
91.780289 -6.6061869 -470.39331
86.733307 -3.229104 -468.90091
87.707001 -0.8009786 -468.55005
87.985909 -4.0021405 -469.30566
88.877861 0.28597111 -468.64987
89.03289 -2.1060774 -469.12347
90.105919 -0.74215859 -469.10947
90.28714 -2.8731551 -469.57617
91.209007 0.63149506 -469.15308
91.371971 -1.5064654 -469.55881
91.520676 -3.901129 -469.94626
87.356758 4.2810912 -467.77023
87.453552 2.6770747 -468.07443
87.55851 1.0784773 -468.29929
88.378334 5.6537023 -467.77002
89.654373 4.6055589 -468.13794
89.821815 3.0022516 -468.44153
89.962936 1.3971956 -468.74002
90.750313 5.7233243 -468.30005
86.863655 10.163778 -466.71146
87.035843 8.3041601 -467.18106
87.142197 6.7045631 -467.44644
87.909882 11.807479 -466.68045
88.095673 9.4094839 -467.16513
89.161095 10.788824 -467.21231
89.350159 8.6439323 -467.591
89.482544 7.0305181 -467.84424
90.271973 11.899614 -467.31183
90.455238 9.7585564 -467.70428
91.560181 10.899291 -467.98965
91.61528 8.7255783 -468.2226
91.884338 7.1375804 -468.56555
87.635574 15.01494 -466.15335
87.816948 13.408381 -466.38788
88.748985 16.677288 -466.21198
90.036987 15.64829 -466.6738
90.141632 14.028763 -466.87186
91.393654 13.012452 -467.41077
87.193581 20.89189 -465.05225
87.32338 19.295362 -465.37943
87.466721 17.427111 -465.7424
88.226517 22.246248 -464.84937
89.549454 21.503027 -465.46606
89.638977 19.91901 -465.84885
89.782227 18.323414 -466.2019
90.638496 22.613253 -465.52219
91.019585 17.558189 -466.60791
91.859718 21.614964 -466.14761
93.324837 -56.692169 -478.07471
93.300606 -55.317924 -478.43713
94.307091 -54.180485 -478.8009
94.540794 -57.424992 -478.51456
94.487625 -55.83073 -478.8541
95.59668 -54.986267 -479.23563
95.752388 -58.206394 -479.20508
95.765152 -56.35778 -479.37842
96.756676 -54.165794 -479.42203
96.912277 -55.801411 -479.67459
96.961937 -57.618443 -479.97412
97.179825 -58.80415 -480.50839
92.828789 -49.389877 -477.72644
92.86718 -51.46077 -478.12109
93.125336 -53.15765 -478.34821
93.942627 -48.301235 -477.8096
93.989067 -50.349907 -478.28928
94.198616 -52.044872 -478.5274
95.203491 -49.097363 -478.34543
95.316177 -50.953384 -478.63956
95.440269 -53.077358 -478.94815
96.462288 -49.893471 -478.73486
96.565712 -51.993027 -479.0498
92.675919 -48.001801 -477.10965
93.63446 -45.997219 -476.94901
94.937851 -44.855164 -477.23026
94.923111 -46.333229 -477.68625
95.850746 -43.300529 -476.96576
96.180557 -47.128902 -478.23419
97.155495 -44.149017 -477.70718
97.321701 -46.057865 -478.18405
97.083092 -42.583839 -477.25946
91.966774 -8.4956083 -470.65118
92.821426 -4.6972871 -470.30249
93.086082 -7.3879771 -470.77893
93.185127 -9.543807 -471.04993
94.077751 -5.4671965 -470.70901
94.287483 -8.4257784 -471.18182
95.258942 -6.4916382 -471.19986
95.596916 -9.2096806 -471.48941
96.398666 -5.1171541 -471.21027
96.575211 -7.276257 -471.59805
92.461441 -0.13924477 -469.53558
92.601913 -2.5470035 -469.92587
93.574547 0.97104889 -469.64249
93.708603 -1.4391443 -469.99664
93.876617 -3.3261521 -470.2988
94.816063 0.20310044 -470.06033
95.142006 -2.5052798 -470.44116
95.1633 -4.0944958 -470.71814
96.093506 -1.1025643 -470.55493
97.252716 0.0034382716 -470.62323
97.417961 -1.8857501 -470.90781
97.410118 -3.469311 -471.21762
92.024727 4.9688334 -468.80075
92.149483 3.3528061 -469.00388
92.272385 1.7393292 -469.2587
94.529381 3.433229 -469.62216
95.816383 2.3875897 -469.99152
97.125214 1.6089748 -470.32382
92.321053 16.511993 -466.95377
92.406776 14.9184 -467.24951
92.547638 13.600545 -467.68329
92.714424 12.301642 -468.29459
93.565125 15.765682 -467.44861
93.574936 14.494229 -467.90454
92.057816 19.741711 -466.49133
93.006111 22.493073 -466.46707
93.155556 20.863947 -466.63748
93.306259 18.968008 -466.8385
98.030975 -54.967995 -479.83475
98.112999 -57.551147 -480.36108
99.179298 -53.900097 -479.84781
99.296005 -56.007839 -480.25961
99.330162 -57.517048 -480.66965
100.37967 -54.878101 -480.25674
100.56893 -57.054466 -480.7085
101.70633 -55.489616 -480.61038
97.666061 -50.884808 -479.14792
97.813385 -53.020313 -479.45227
98.711136 -48.969112 -479.08728
98.929192 -51.927677 -479.52969
100.03651 -50.320801 -479.57733
101.14621 -48.963009 -479.63211
101.29874 -51.108749 -479.95035
101.38073 -52.698299 -480.15463
97.457184 -47.934982 -478.63077
98.588646 -46.855225 -478.60953
99.465675 -43.554779 -478.19519
99.646553 -45.201298 -478.50903
99.823059 -47.865906 -479.1185
100.87685 -46.208763 -479.03201
101.91593 -43.795017 -478.82089
102.23637 -47.086742 -479.49866
98.206238 -41.207897 -477.43414
99.205093 -40.060444 -477.62576
99.404343 -41.971668 -477.94412
100.3913 -39.001915 -477.77524
100.48467 -40.85231 -478.1459
101.49202 -37.645702 -477.69672
101.61749 -39.761024 -478.23236
101.71389 -41.87043 -478.54715
102.66769 -38.611561 -478.23831
102.89915 -40.812973 -478.63446
102.50537 -36.452183 -477.55151
102.65042 -9.5855274 -473.21216
97.738953 -5.636981 -471.64377
97.957092 -9.4136076 -472.06845
98.827599 -4.2639675 -471.67859
98.925079 -6.6549673 -472.11771
99.168823 -8.2837009 -472.32114
99.975357 -5.2684126 -472.1489
100.28258 -7.1702552 -472.52527
100.42793 -9.3279848 -472.7562
101.3231 -6.0550694 -472.60388
101.50629 -8.2041473 -473.00021
102.42552 -4.9451756 -472.66461
102.61146 -6.8211966 -473.09067
98.54689 -0.78207678 -470.97726
98.667664 -2.6479197 -471.35263
99.656326 0.58576703 -470.99741
100.83713 -0.41320279 -471.49768
101.05827 -2.304152 -471.90228
101.1072 -3.8967822 -472.17493
101.88445 1.2317636 -471.496
102.14565 -1.1889998 -471.97879
99.476044 2.2015245 -470.62531
101.73225 3.0834212 -471.10638
103.00043 2.3386846 -471.65726
100.60155 17.42223 -469.10172
100.64746 16.496891 -469.84579
101.79376 17.439611 -469.23819
101.85311 16.278988 -469.7504
100.24065 22.687874 -467.73343
100.29824 21.119772 -468.2326
100.4865 19.518248 -468.59058
101.59104 22.225229 -468.28577
101.72228 20.633598 -468.66577
101.78005 18.483135 -469.0249
102.75746 21.74263 -468.69235
102.88196 19.870056 -469.08551
103.04073 18.256916 -469.39667
103.05673 -42.707867 -478.89499
103.21994 -44.607597 -479.23517
104.28458 -43.470726 -479.32352
103.85387 -37.040787 -478.17282
104.01421 -39.708683 -478.67465
104.1971 -41.617615 -478.9902
105.00359 -38.022213 -478.6951
105.41269 -40.281223 -479.07742
103.68907 -35.413364 -477.45273
104.7988 -34.30582 -477.47919
104.86335 -35.877872 -478.21564
105.798 -33.156727 -477.48502
106.90609 -32.289989 -477.95221
108.03065 -31.242754 -477.99362
103.74773 -5.7099743 -473.20474
103.81049 -7.8660159 -473.50507
104.16251 -9.468441 -473.61893
104.93829 -6.7371311 -473.73291
105.87878 -4.7916927 -474.0192
106.03362 -8.5312071 -474.32309
106.17844 -7.4874907 -474.32355
103.16324 -0.060472734 -472.05969
103.47569 -3.016026 -472.68115
104.53925 -0.56827855 -472.55231
104.72375 -3.7676067 -473.24985
105.49429 0.84323078 -472.81696
105.51287 -1.8154198 -473.31445
104.03136 5.3983531 -471.86227
104.05067 4.2629743 -471.92603
104.17268 3.1962321 -471.95676
104.33383 1.5765755 -472.10645
104.67455 6.7135463 -472.09509
104.91705 5.4062696 -472.32321
105.03264 4.3135152 -472.33936
105.46378 3.2995155 -472.60379
103.1357 16.429018 -469.86411
103.15691 15.458159 -470.27841
103.22676 14.739693 -470.82568
103.96115 16.008862 -470.32104
103.99275 15.16008 -470.78452
104.07446 14.105404 -470.99268
104.19703 17.307165 -470.29776
104.35144 13.285359 -471.2388
104.61932 12.677062 -470.73938
103.69482 22.838554 -469.13586
103.83984 20.997732 -469.40414
103.96111 19.129244 -469.72604
114.75613 -95.332558 -482.4212
42.379814 -99.956894 -472.39777
42.418575 -100.67215 -473.26813
43.3134 -98.147461 -472.91916
49.101788 -93.089996 -471.1315
51.699059 -92.417274 -469.58481
52.381042 -92.867546 -472.75967
52.624432 -92.631721 -471.06866
52.995712 -92.319519 -468.72812
57.431049 -94.315277 -472.31183
57.297573 -94.827057 -474.29785
58.410656 -95.090332 -472.45395
58.658054 -94.657524 -471.26953
53.520573 -92.981934 -473.51932
55.011475 -93.04425 -471.40552
56.027046 -93.546738 -472.03845
56.415176 -92.959198 -469.98715
57.347511 -93.751724 -471.18454
58.553539 -95.970337 -474.04279
60.079399 -96.442757 -470.12454
59.919376 -96.786766 -472.2681
59.950802 -97.824455 -473.82312
68.778397 -58.99284 -465.73953
74.993713 -38.13356 -464.42709
77.519669 -55.811813 -467.1398
77.428452 -55.387054 -468.71967
77.274414 -55.131958 -470.34286
78.66214 -54.573154 -467.2066
78.188499 -53.728916 -471.01328
78.427879 -54.045658 -469.40656
79.544502 -52.930103 -467.56192
79.467117 -52.438423 -469.2417
79.865952 -53.303692 -466.42654
80.360832 -49.752197 -468.85364
80.790901 -51.16391 -466.36703
79.908737 -43.89753 -468.7446
79.809052 -44.640926 -470.36154
80.006409 -47.307201 -470.92557
80.180138 -48.93066 -470.16174
75.988594 -38.620632 -465.82379
76.39328 -38.922871 -464.40387
77.144501 -39.568287 -467.1456
78.548309 -40.882145 -466.51089
78.461548 -41.244747 -468.54913
80.147209 -42.731483 -465.05151
80.013084 -43.172485 -466.96268
102.64294 -92.400162 -475.67133
102.73809 -91.975914 -477.45496
102.8688 -92.605347 -476.58765
103.88483 -92.730377 -476.82571
100.92047 -81.883667 -473.01797
102.00642 -81.053612 -473.17584
102.10955 -82.13179 -473.22253
103.19843 -80.622307 -473.19019
105.12458 -93.507561 -479.16608
105.23432 -92.906563 -480.42197
103.92422 -91.840187 -478.85944
104.06149 -92.849533 -477.97995
104.65025 -92.431572 -479.39059
106.81368 -82.858711 -473.96371
109.1637 -83.364319 -474.48944
104.38017 -81.301239 -473.53928
105.46951 -80.952553 -473.71466
106.66171 -80.4795 -473.87012
107.84289 -80.484383 -474.16638
107.95592 -81.810242 -474.39517
108.92915 -80.612808 -474.47012
108.97782 -79.457405 -473.96536
109.04655 -82.026009 -474.69476
109.59267 -59.706108 -471.19455
109.52341 -29.184551 -468.5553
109.45177 -27.808039 -469.07278
109.13068 -23.087954 -467.6376
109.16241 -24.371113 -468.37958
109.31921 -26.237797 -468.54642
108.55046 -16.199068 -466.55945
108.66895 -18.042662 -466.9801
108.77682 -19.633615 -467.23294
108.95257 -21.481606 -467.5892
108.19936 -12.180858 -466.35553
108.38868 -14.927588 -465.88748
113.40905 -94.180702 -476.60602
113.53691 -95.520241 -476.62567
113.937 -97.915253 -477.13498
114.5886 -92.773918 -479.63617
114.74982 -94.380402 -479.95349
113.05867 -89.389366 -475.92569
113.30482 -91.174202 -476.07419
113.34444 -92.841049 -476.46371
114.14848 -87.418358 -478.57812
114.33257 -89.301041 -479.10583
114.4663 -91.181969 -479.58917
110.5068 -84.668549 -474.74445
111.50045 -83.089668 -475.20953
111.79327 -85.191185 -475.04672
111.83113 -86.98085 -475.2059
112.57557 -83.887718 -475.60504
112.7162 -85.969475 -475.51114
112.78995 -82.561165 -475.97842
112.92051 -84.668541 -475.75314
113.0724 -87.308197 -475.83194
113.69955 -81.597107 -478.9668
113.85123 -83.428055 -478.16534
113.98934 -84.760269 -478.37341
114.08342 -85.858261 -479.2225
110.06204 -78.338081 -473.74527
110.15561 -80.166962 -474.58392
110.277 -81.776985 -475.01422
111.19467 -78.991272 -474.33905
111.30212 -77.597618 -473.87305
111.3287 -80.920502 -475.22617
111.85545 -79.88443 -475.10074
112.32632 -77.238998 -474.4451
112.24319 -81.476219 -475.76492
112.3055 -80.399803 -475.62155
113.34279 -76.749123 -476.9588
113.40776 -78.09185 -477.56631
113.56756 -81.028801 -477.90503
113.54624 -79.455727 -478.55228
111.66064 -71.361931 -473.21753
111.90694 -72.190834 -473.55206
111.92006 -73.238533 -473.61026
112.86833 -70.880554 -475.74438
112.9818 -72.216728 -476.19058
113.12308 -73.550125 -476.44766
113.21193 -75.15567 -476.94498
111.31755 -67.38504 -472.49503
111.55363 -69.516563 -472.85715
111.86555 -70.345963 -473.22067
112.46152 -65.824997 -475.80005
112.64426 -67.685951 -475.42014
112.78379 -69.55014 -475.63318
110.63564 -60.34103 -471.71832
110.84199 -62.377464 -471.83008
111.13641 -64.488159 -472.09653
112.05917 -60.760574 -474.80447
112.21166 -62.626041 -475.04095
112.33048 -64.225151 -475.37311
110.73611 -59.507744 -471.89227
111.93744 -59.158051 -474.94009
36.892342 -93.921745 -461.48236
36.095875 -85.286812 -460.3772
35.703274 -78.981575 -458.71048
35.850254 -81.456734 -459.44327
35.828636 -82.803886 -460.2095
35.915585 -84.016464 -460.51077
36.903355 -79.975601 -459.18088
36.962147 -82.141563 -460.10803
36.992256 -83.506584 -460.7132
35.259651 -74.277916 -458.16006
36.496082 -75.319595 -458.48819
36.629829 -76.855881 -458.71231
36.223656 -72.464661 -458.14774
36.976246 -67.700539 -457.5166
37.102463 -69.2677 -457.8067
35.510235 -63.593075 -456.54013
35.637577 -65.099396 -456.80252
35.760498 -66.698074 -457.10464
34.989071 -57.264275 -455.46762
35.111099 -58.7981 -455.73697
35.254944 -60.453094 -456.01459
35.375702 -61.960659 -456.26962
34.821854 -54.913109 -454.94238
35.818123 -53.34679 -454.9285
36.021935 -55.945713 -455.42749
37.04018 -54.395302 -455.34583
36.661755 -49.704987 -454.47137
36.776779 -51.205795 -454.79251
37.487194 -100.76167 -462.49701
37.689312 -102.64536 -462.46808
38.710159 -101.56525 -462.8006
38.849438 -102.57142 -462.8063
39.072433 -103.40855 -462.51614
39.819599 -101.75586 -463.11688
39.917435 -102.82215 -463.23282
40.132015 -103.89737 -463.21268
40.863552 -101.16972 -463.20322
41.012772 -102.4086 -463.53983
41.132351 -103.61929 -463.6058
42.031998 -102.13711 -463.34204
42.112534 -100.96102 -463.00009
42.112816 -103.51099 -463.51505
42.176758 -103.30642 -464.3248
38.207321 -96.281723 -462.16611
38.347916 -97.907738 -462.41501
38.481888 -99.421989 -462.66904
39.722412 -100.42 -463.00266
40.435745 -95.966949 -462.60397
40.593891 -97.597626 -462.77863
40.732578 -98.852043 -462.96347
41.715103 -96.897606 -462.92056
41.825882 -97.913078 -462.95428
41.873604 -98.861488 -463.00131
41.978176 -99.904884 -463.08527
42.702583 -100.09513 -462.54095
42.559841 -95.132126 -463.02951
42.602737 -96.893692 -463.26349
37.740204 -90.741142 -461.27826
37.882599 -92.370483 -461.50259
38.085716 -94.758377 -461.88245
39.10284 -93.404869 -461.89911
39.915039 -89.788651 -461.58578
40.07922 -91.538986 -461.81747
40.307537 -94.397598 -462.3356
41.269299 -92.445755 -462.22598
42.168419 -89.703812 -462.07056
42.3102 -91.247269 -462.25504
42.469387 -93.356949 -462.67993
37.338657 -86.062759 -460.52765
37.516769 -87.647964 -460.58917
37.6003 -89.024895 -460.93948
38.18219 -84.030708 -461.01871
39.424667 -84.973801 -461.17645
39.665642 -86.56929 -460.99661
39.781536 -88.108582 -461.28265
40.69912 -85.768929 -461.24948
41.549652 -83.919296 -461.75873
41.906097 -86.520828 -461.49478
42.036659 -88.090019 -461.77542
38.057049 -80.535622 -459.61459
38.093941 -82.895844 -460.76901
39.017651 -78.642761 -459.56531
39.189735 -80.926605 -460.03207
39.214764 -82.458275 -460.83713
39.280121 -83.711166 -461.2128
40.260437 -79.74192 -459.92108
40.306004 -81.693153 -460.7731
40.354706 -83.162628 -461.41302
41.405823 -80.487839 -460.50085
41.436356 -82.395439 -461.47052
42.426414 -79.135559 -460.47995
42.535194 -81.086769 -461.10413
42.56234 -82.620941 -461.86023
37.441402 -73.413864 -458.51456
37.816807 -77.699356 -459.18832
38.664509 -74.50106 -458.9436
38.80072 -76.06501 -459.16837
40.019466 -77.096291 -459.56628
40.84758 -74.180199 -459.57404
40.996593 -75.959084 -459.79123
41.242214 -78.160995 -459.99313
42.218098 -76.80925 -460.18509
37.235409 -70.840019 -458.05664
38.446125 -71.88726 -458.50558
39.324604 -68.713089 -458.14783
39.442017 -70.208847 -458.39874
39.641907 -72.94828 -459.05774
40.623596 -71.06041 -458.91476
41.528236 -68.204384 -458.64621
41.65266 -69.750748 -458.90512
41.806313 -71.884232 -459.38788
37.737 -63.215263 -456.97897
37.875118 -64.865547 -457.28052
37.994846 -66.36879 -457.5325
39.182808 -67.188332 -457.97958
39.936005 -62.468731 -457.36539
40.05389 -64.027916 -457.68011
40.164543 -65.592186 -458.03802
41.369209 -66.570259 -458.44205
42.187798 -62.636078 -457.9566
42.290421 -64.121086 -458.26205
37.220112 -56.778965 -455.85727
37.347404 -58.35339 -456.13055
37.485256 -60.085587 -456.41086
37.611958 -61.676933 -456.71292
39.5243 -57.666412 -456.57687
39.671421 -59.274761 -456.79929
39.807159 -60.902164 -457.0769
41.786015 -57.872822 -457.12439
41.942413 -59.507652 -457.36447
42.06403 -61.071133 -457.66382
37.97887 -52.033375 -455.17136
38.203777 -55.317348 -455.87222
39.14827 -52.986256 -455.71725
39.394238 -56.128418 -456.33118
40.152294 -51.188129 -455.5889
40.344326 -53.846516 -456.22797
41.327122 -52.142254 -456.12134
41.527367 -54.777355 -456.68448
41.667152 -56.360142 -456.90253
42.539772 -53.007751 -456.48633
38.660999 -47.005829 -454.673
38.799461 -48.57481 -454.90247
38.942818 -50.130199 -455.08972
40.820644 -45.859676 -454.992
40.94598 -47.477013 -455.31897
41.097672 -49.076885 -455.52664
42.307014 -50.038883 -455.90781
38.423561 -43.667957 -453.97787
38.532875 -45.431801 -454.3685
39.263016 -40.240597 -453.64957
39.395851 -41.809391 -453.90598
40.589531 -42.758991 -454.33533
40.71526 -44.355076 -454.66751
41.626183 -41.488071 -454.33221
42.830551 -42.534882 -454.80237
39.012871 -37.080158 -453.01312
39.137932 -38.682789 -453.37534
41.127892 -35.21339 -453.14349
41.257217 -36.826534 -453.4675
41.3685 -38.303757 -453.7746
41.491516 -39.927738 -454.09833
41.025318 -33.706692 -452.84415
41.940754 -31.052387 -452.5636
42.765213 -97.747215 -463.3259
42.759548 -96.088753 -463.24887
43.018501 -98.541367 -463.10486
43.249207 -99.051399 -462.23758
43.653461 -95.43058 -463.61526
43.784679 -96.604012 -464.17355
43.652912 -97.740501 -465.55737
43.832916 -97.257736 -464.82843
44.491325 -95.193604 -464.12775
44.566082 -96.33725 -465.59415
45.638058 -95.270935 -465.58859
43.504932 -92.093582 -462.71979
43.696484 -94.4841 -463.30368
44.419628 -89.578041 -462.48456
44.655926 -94.067184 -463.67416
44.717045 -93.009384 -463.35641
45.608654 -90.406754 -462.91501
45.662857 -93.377495 -463.92618
45.729481 -92.32592 -463.50836
45.683586 -94.623459 -464.77814
46.782146 -91.688774 -463.61478
46.746433 -92.909843 -464.27029
46.70266 -94.250282 -465.71597
47.82922 -90.540031 -463.54849
47.890919 -91.978027 -464.19321
47.789654 -93.236198 -465.27948
47.677883 -93.839355 -466.68539
42.720722 -84.193787 -462.01202
43.949448 -84.955261 -462.18942
44.098919 -86.473625 -462.12073
44.288654 -88.080818 -462.29367
46.163345 -84.904861 -462.77771
46.394638 -86.488708 -462.62433
46.533566 -88.021469 -462.76578
47.736225 -88.870277 -463.20697
43.601109 -79.763252 -460.88211
43.671341 -82.038963 -461.87137
43.748089 -83.399963 -462.28833
44.648064 -78.697708 -460.9191
44.772141 -80.270653 -461.20026
44.827354 -82.636116 -462.33423
45.938454 -80.832024 -461.60617
45.949944 -82.145836 -462.34586
46.015347 -83.412056 -462.80856
46.901581 -78.575302 -461.35611
47.072426 -82.546936 -462.85965
48.099026 -79.405014 -461.77838
48.162666 -80.86142 -462.26569
43.141712 -74.391258 -460.07373
43.428997 -77.815285 -460.5813
44.342564 -75.232857 -460.43683
45.560349 -76.244186 -460.82559
46.459347 -73.556732 -460.61847
46.583168 -75.099594 -460.90225
46.76368 -77.066643 -461.20474
42.836704 -70.57415 -459.37537
43.008373 -72.876717 -459.83517
43.766075 -68.106117 -459.14893
44.038994 -71.528976 -459.79263
44.97942 -69.124535 -459.56305
45.258286 -72.533829 -460.17606
46.208225 -70.21209 -459.97919
47.149788 -68.308151 -460.00107
47.402538 -71.196999 -460.42908
43.507504 -64.981781 -458.62805
43.64566 -66.562828 -458.8606
44.484013 -63.356514 -458.67239
45.696281 -64.193466 -459.05069
45.80695 -65.701164 -459.29504
45.956173 -67.342003 -459.60361
46.680962 -62.320232 -458.90384
47.864605 -63.260944 -459.39194
48.001427 -64.938797 -459.75485
48.114723 -66.456833 -460.01578
43.986641 -57.079605 -457.50873
44.125702 -58.725063 -457.80194
44.24456 -60.229626 -458.05728
44.374187 -61.866455 -458.40396
46.2784 -57.559101 -458.12149
46.424461 -59.194073 -458.36871
46.555634 -60.686409 -458.57184
43.759319 -53.964119 -456.84882
43.878651 -55.601658 -457.19052
44.717487 -51.873596 -456.72751
45.930679 -52.917881 -457.17987
46.047722 -54.43832 -457.45621
46.174095 -56.073059 -457.81271
46.959717 -51.597374 -457.18134
48.142006 -52.565678 -457.67151
48.278133 -54.165749 -457.9657
43.077759 -45.621773 -455.38977
43.198162 -47.137218 -455.69638
43.325317 -48.752651 -455.97354
43.511696 -50.893875 -456.31256
44.535088 -49.762142 -456.39395
45.368408 -45.857555 -455.8652
45.484695 -47.43367 -456.20404
46.704056 -48.465836 -456.64307
46.831661 -50.009876 -456.87195
47.602741 -45.746593 -456.31027
47.749695 -47.391541 -456.72256
42.956322 -44.05064 -455.08002
43.777878 -40.122719 -454.56424
44.986176 -41.113434 -454.98291
45.126663 -42.732029 -455.25235
45.250984 -44.24855 -455.51215
47.254383 -41.141796 -455.54416
47.356003 -42.648476 -455.8096
47.511295 -44.265564 -456.05627
43.388626 -35.214542 -453.67715
43.506378 -36.73238 -453.93793
43.642658 -38.375107 -454.25241
45.656128 -35.385841 -454.19324
45.790787 -36.978409 -454.49701
45.906918 -38.523529 -454.79254
47.12146 -39.568283 -455.28433
47.942909 -35.85463 -454.83527
48.06765 -37.458488 -455.21686
43.13364 -32.053619 -453.06586
43.255306 -33.618904 -453.38492
44.091518 -29.712036 -452.8396
45.281639 -30.687304 -453.30545
45.409184 -32.278008 -453.64343
45.540894 -33.857685 -453.91696
47.470844 -29.646158 -453.60471
47.569859 -31.130249 -453.9043
47.699608 -32.729706 -454.22345
47.827942 -34.294964 -454.49878
43.964531 -28.118515 -452.49176
44.794655 -24.47282 -452.13968
44.934845 -26.04813 -452.39868
46.136421 -27.05308 -452.85452
46.245083 -28.584402 -453.17358
47.039822 -24.437347 -452.71069
47.167793 -25.962183 -452.94772
48.372128 -26.783104 -453.30798
48.493504 -28.287327 -453.5788
43.592361 -23.471853 -451.71667
45.71468 -21.864374 -451.99582
46.919064 -22.841417 -452.38474
48.947773 -90.116676 -463.74274
48.996796 -91.461517 -464.30637
48.913273 -92.809898 -465.53418
50.086918 -90.393509 -464.11615
50.111755 -91.556152 -464.74091
50.001698 -92.442314 -465.76254
51.178921 -89.631989 -464.12628
51.230114 -91.233032 -464.82843
51.137589 -92.116379 -465.81357
52.326698 -90.258163 -464.63452
52.347073 -91.422516 -465.26761
53.383522 -89.27108 -464.64975
53.477097 -90.631653 -465.01526
53.460926 -91.547729 -465.65344
48.430939 -84.899033 -463.30539
48.637486 -86.444016 -463.15936
49.877312 -87.283539 -463.4267
49.967537 -88.749527 -463.70081
50.684124 -84.628609 -463.79526
50.888397 -86.177269 -463.56973
52.07177 -86.909576 -463.86136
52.21273 -88.330132 -464.12808
52.8283 -83.827873 -464.40799
52.985855 -85.101402 -464.1994
48.198357 -82.361794 -463.07062
48.28109 -83.629181 -463.40509
49.292343 -81.480286 -462.93848
49.348099 -83.037201 -463.57596
50.363148 -79.673706 -462.42365
50.45068 -82.401825 -463.68475
50.519314 -83.548729 -463.90689
51.523033 -80.277458 -462.81949
51.551788 -81.676964 -463.56317
51.606792 -83.032753 -464.11401
52.529518 -78.501541 -462.65637
52.709808 -82.562523 -464.25677
53.733097 -79.488762 -463.10251
53.791012 -81.130089 -463.77554
48.735275 -73.834236 -461.23663
48.868347 -75.412926 -461.49167
48.997395 -76.985123 -461.75885
50.210026 -77.979866 -462.14996
50.897839 -72.779945 -461.65021
51.031364 -74.31105 -461.82089
51.19017 -75.9748 -462.02985
52.387882 -76.902458 -462.42526
53.211777 -73.319183 -462.19925
53.347713 -74.823601 -462.3446
48.360165 -69.121033 -460.37784
48.583729 -72.190598 -460.94101
49.582188 -70.192497 -460.84955
50.543106 -68.268379 -460.71997
50.756271 -71.148399 -461.33105
51.743832 -69.081161 -461.14374
52.755646 -67.729012 -461.18594
52.945328 -70.107048 -461.63477
53.059959 -71.67308 -461.9747
49.321827 -67.268227 -460.39499
50.132465 -63.10548 -459.83533
50.22707 -64.57103 -460.15698
51.436817 -65.424423 -460.56595
51.553074 -66.907608 -460.76859
52.393822 -63.257034 -460.38348
53.608971 -64.508987 -460.92297
53.747711 -66.135246 -461.20905
48.519444 -57.304134 -458.59216
48.647324 -58.83321 -458.80103
48.799686 -60.481007 -459.0733
50.006683 -61.495914 -459.50595
50.810829 -57.537239 -459.08002
50.927574 -59.073006 -459.36169
52.147495 -60.107857 -459.76645
52.279148 -61.698338 -460.05072
53.063053 -57.491467 -459.59653
48.391697 -55.699089 -458.26309
50.301178 -51.016319 -457.86972
50.43285 -52.61713 -458.16583
50.550644 -54.367977 -458.50183
50.678642 -55.950657 -458.80142
52.553608 -51.153671 -458.41537
52.683578 -52.771812 -458.74149
52.789383 -54.27721 -459.03131
52.92931 -55.903763 -459.32675
48.921719 -48.379074 -457.26114
49.059509 -49.940483 -457.44986
49.861294 -46.234249 -457.18417
51.061932 -47.063461 -457.65497
51.195351 -48.609341 -457.87064
52.13419 -45.952267 -457.52975
52.437286 -49.62822 -458.13141
53.369129 -46.942112 -457.86896
49.420341 -40.02187 -455.80551
49.548542 -41.600197 -456.10815
49.673534 -43.192726 -456.45947
49.766052 -44.685711 -456.76547
51.777397 -41.281788 -456.56985
51.901497 -42.83548 -456.8468
52.020638 -44.383934 -457.16946
53.930531 -39.90987 -456.80756
49.286427 -38.463146 -455.59006
50.175316 -35.54644 -455.33435
50.29826 -37.094181 -455.60254
51.533207 -38.112194 -455.92981
51.659561 -39.723881 -456.25873
52.47765 -35.787045 -455.7576
53.698616 -36.790207 -456.13806
53.807114 -38.320042 -456.48221
49.699745 -29.277851 -454.0119
49.816856 -30.869148 -454.38791
49.941692 -32.468128 -454.73697
50.055099 -33.982658 -455.01114
51.982098 -29.543802 -454.61633
52.100616 -31.077854 -454.90305
52.229401 -32.597137 -455.18301
52.361588 -34.199123 -455.4231
49.325745 -24.390244 -453.03568
50.548149 -25.375965 -453.40884
50.667847 -26.967562 -453.74466
51.879799 -27.97805 -454.18723
52.646893 -23.506887 -453.61179
52.800232 -25.325695 -453.88556
52.931717 -26.907753 -454.20233
49.21909 -22.834337 -452.64807
51.483875 -22.77424 -453.09729
49.087517 5.8616672 -448.49829
51.123287 9.0145674 -448.24481
51.268497 7.4473639 -448.45178
51.39682 5.8957815 -448.71191
52.621471 4.8770251 -449.09137
53.419044 8.8244352 -448.75833
53.555367 7.2583966 -448.97769
51.941448 12.943156 -447.78683
52.071598 11.386155 -448.07095
53.2924 10.38312 -448.49103
54.106468 14.323675 -448.07907
54.231377 12.757476 -448.33618
53.72197 18.994314 -447.25571
53.833855 17.444857 -447.59695
53.967876 15.884501 -447.85104
59.093098 -94.233665 -468.25977
54.573013 -89.897385 -465.00293
54.647747 -90.890976 -465.33081
54.510998 -92.147995 -466.686
55.719803 -90.059898 -465.24762
55.725315 -91.873413 -466.19913
55.802525 -91.069839 -465.57562
56.805115 -89.433022 -465.34985
56.917866 -90.909271 -465.64575
56.91748 -92.009346 -466.3092
58.017155 -90.359764 -465.74274
57.749352 -93.322922 -468.33493
58.080822 -91.673195 -466.15881
58.095551 -92.475464 -466.64954
59.049393 -89.271057 -465.87103
59.179787 -91.005829 -466.19049
59.259171 -92.332664 -466.48972
59.203732 -93.672462 -467.38492
53.996677 -84.070419 -464.60281
54.214062 -85.872765 -464.40524
54.348427 -87.447968 -464.67462
55.233192 -84.828239 -464.72345
55.424507 -86.416054 -464.68262
55.586544 -88.519936 -465.04221
56.212559 -83.549133 -465.10089
56.631302 -87.229622 -464.99896
57.440388 -84.291199 -465.31546
57.599056 -85.832649 -465.15192
57.828445 -88.211357 -465.44232
58.85627 -87.076691 -465.44675
53.852615 -82.61348 -464.51715
54.956017 -82.019714 -464.5285
55.897232 -78.23764 -463.40115
56.009636 -79.71814 -463.64282
56.050415 -80.9804 -464.22806
56.098488 -82.459976 -464.9707
57.204124 -81.742645 -464.95728
57.299229 -83.051414 -465.39029
58.266117 -79.544968 -464.11639
58.334873 -82.185677 -465.48627
59.36422 -78.789314 -464.11041
59.424473 -80.382607 -464.70178
54.585564 -75.9161 -462.7316
54.685635 -77.399078 -463.03204
55.432388 -72.691505 -462.49377
55.568062 -74.259903 -462.71326
56.770718 -75.204628 -463.12311
56.917179 -76.886856 -463.40707
57.808056 -73.811569 -463.11066
58.125362 -77.845413 -463.78632
59.023216 -74.778038 -463.47955
59.14587 -76.359505 -463.78961
53.958839 -68.552841 -461.60159
54.979561 -67.189766 -461.58594
55.170582 -69.552017 -461.98413
55.292713 -71.10778 -462.27911
56.182381 -68.117607 -461.96661
57.397461 -68.97451 -462.3187
57.523346 -70.550125 -462.60944
57.659897 -72.151405 -462.8656
58.397827 -67.368095 -462.28302
54.649826 -63.171223 -460.8327
55.863964 -64.042343 -461.23544
55.964489 -65.518295 -461.56439
57.176666 -66.355064 -461.91473
58.011845 -62.439854 -461.38962
58.106449 -63.923389 -461.72455
59.322636 -64.766182 -462.09467
59.431705 -66.261261 -462.34113
54.287235 -58.543221 -459.99112
54.413906 -60.051228 -460.20947
54.543831 -61.65551 -460.50409
55.317852 -57.178711 -459.93793
56.542465 -58.188602 -460.29211
56.677258 -59.841732 -460.64719
56.797264 -61.555695 -460.95251
57.536556 -56.589584 -460.22852
58.764946 -57.415997 -460.66272
58.840984 -58.899773 -460.94373
58.991558 -60.536442 -461.25134
54.821587 -50.934757 -458.83807
54.930782 -52.488083 -459.17337
55.052776 -54.04977 -459.46552
55.182602 -55.563229 -459.70074
57.165054 -51.918724 -459.53027
57.287121 -53.719688 -459.78745
57.443027 -55.072235 -459.96063
58.146069 -50.822788 -459.71753
58.304863 -52.920784 -459.9707
59.142242 -50.527668 -460.39093
59.169899 -51.57111 -460.46841
59.330578 -53.432579 -460.52921
54.569637 -47.787979 -458.20541
54.681404 -49.295544 -458.49548
55.544903 -45.664383 -458.0076
56.745972 -47.150024 -458.58212
56.919514 -48.781513 -458.93967
57.014019 -50.559147 -459.27756
57.773697 -46.0769 -458.68011
58.118149 -49.543831 -459.46262
58.857624 -45.306156 -458.96912
58.85397 -47.069096 -459.4549
59.042564 -48.183102 -459.8248
59.106651 -49.485115 -460.16946
54.050518 -41.461712 -457.10049
54.188778 -43.034962 -457.32874
54.322689 -44.663643 -457.61649
56.215263 -39.878319 -457.17255
56.340523 -41.456451 -457.47791
56.456062 -42.993626 -457.75931
56.579521 -44.56216 -458.0351
58.5159 -40.130508 -457.72031
58.611641 -41.636806 -457.94028
58.747047 -42.989468 -458.2262
58.742378 -43.954666 -458.50064
55.848461 -35.196556 -456.29108
55.944153 -36.689045 -456.59698
56.088631 -38.31369 -456.89545
58.113926 -35.356422 -456.83969
58.248367 -36.978745 -457.18188
58.37949 -38.55299 -457.44943
54.246059 -29.460577 -455.03616
54.391136 -31.072683 -455.24905
54.524151 -32.601387 -455.45395
54.638859 -34.160027 -455.79568
56.544327 -29.675386 -455.45383
56.685944 -31.276997 -455.74796
56.810261 -32.833328 -456.00238
58.021187 -33.857391 -456.48535
58.74699 -28.856792 -455.83774
58.873516 -30.427782 -456.13071
59.006039 -31.998274 -456.38055
54.136879 -27.959064 -454.72781
54.939411 -23.956675 -454.20685
55.087284 -25.537706 -454.41479
56.30188 -26.556744 -454.8653
56.432842 -28.151575 -455.19269
57.321354 -24.767982 -454.72928
58.520824 -25.746902 -455.14273
58.631809 -27.280844 -455.45111
59.455097 -23.354076 -454.93289
54.813446 -22.424898 -454.11069
57.026768 -21.583324 -454.28809
57.171936 -23.159365 -454.45731
59.191475 -20.229445 -454.52017
59.340439 -21.818151 -454.7514
56.118961 3.6691895 -450.10062
57.330246 2.6789904 -450.5267
58.548267 1.6573462 -450.92828
58.67075 0.11112396 -451.24222
59.511707 4.0334411 -450.62701
54.780754 6.2449727 -449.35034
54.90826 4.6842055 -449.65811
55.716484 8.6219788 -449.21378
56.942989 7.6082644 -449.58267
57.080132 6.0389152 -449.79523
57.937927 9.2018299 -449.57547
58.293777 5.0364466 -450.20209
59.180126 8.1907625 -449.92282
59.303402 6.6192989 -450.12415
55.453747 11.747762 -448.72369
55.571503 10.18697 -448.99695
56.334805 14.899798 -448.41391
56.470524 13.342802 -448.65067
57.695976 12.325365 -449.02548
57.820332 10.763912 -449.29651
58.710781 13.90874 -448.93692
55.987915 19.516685 -447.4249
56.081421 18.016579 -447.87677
56.201035 16.46533 -448.18677
58.333099 18.575438 -448.11868
58.452812 17.032261 -448.43359
58.575768 15.467293 -448.70612
62.901051 -105.97982 -467.80707
63.110352 -106.97784 -467.16324
63.672844 -108.42139 -466.75156
64.141357 -106.35848 -467.37158
64.514725 -107.85274 -466.45453
64.625122 -106.90651 -466.73889
64.961945 -105.98815 -467.64731
62.03886 -101.00919 -468.97098
62.377186 -104.04944 -468.92184
62.643848 -102.46613 -468.71469
62.737007 -105.12933 -468.48419
63.008991 -103.81316 -468.20993
63.247677 -99.847191 -468.56152
63.382549 -101.43136 -468.61157
63.613998 -103.20243 -468.647
63.812885 -104.49572 -468.39029
64.007774 -105.44264 -467.95096
64.569221 -101.1038 -468.6138
64.719162 -102.69162 -468.64041
64.895851 -103.94417 -468.60693
60.431015 -94.714676 -467.56372
60.593948 -95.577103 -468.24158
61.735786 -96.800995 -468.11707
61.902374 -95.69561 -467.58185
61.881283 -97.749268 -468.51086
61.860649 -98.603806 -468.8407
62.067467 -99.560966 -468.90115
62.952507 -94.951477 -467.38239
62.999794 -96.167519 -467.61148
63.114506 -97.115685 -467.85196
63.131866 -98.530876 -468.29233
64.06694 -94.795135 -467.51837
64.169556 -96.105812 -467.70776
64.275757 -97.402527 -467.98892
64.384048 -98.399139 -468.16422
64.42028 -99.540779 -468.41632
60.238571 -90.218925 -466.33221
60.389465 -92.009132 -466.60797
60.512058 -93.072815 -466.80273
61.275009 -88.885025 -466.2702
61.451756 -91.160431 -466.77106
61.612114 -93.012756 -466.91953
61.68441 -94.048012 -467.10416
62.483536 -89.760643 -466.71671
62.683064 -92.116196 -467.06604
62.812927 -93.838211 -467.17029
63.704308 -90.738045 -467.08209
63.928474 -93.193619 -467.36514
64.728134 -89.234451 -466.98416
64.934982 -91.752388 -467.39651
59.712059 -84.513329 -465.77847
59.910187 -86.074112 -465.60641
60.09594 -87.962318 -465.78604
61.135971 -86.848274 -465.81219
62.012268 -84.48513 -466.1423
62.326298 -87.562126 -466.14996
63.270443 -85.510689 -466.22571
63.509327 -88.285034 -466.58755
64.256699 -84.19371 -466.54727
64.522507 -86.549271 -466.44772
59.471195 -82.047684 -465.61948
59.553989 -83.216728 -465.90366
60.586227 -81.113998 -465.34912
60.653412 -82.694969 -466.02515
61.581974 -78.333824 -464.50107
61.675762 -79.746437 -464.92899
61.738518 -81.82737 -465.96951
61.835026 -83.156548 -466.25574
62.842533 -80.815636 -465.72488
62.915733 -82.378746 -466.35001
63.888168 -78.826729 -465.0918
64.004898 -81.627869 -466.36435
64.109329 -82.928246 -466.65482
59.990452 -72.861794 -463.38409
60.376778 -77.413559 -464.16061
61.204922 -73.68264 -463.74365
61.326256 -75.215546 -463.9964
62.557602 -76.295525 -464.40027
63.41745 -72.897087 -464.06705
63.543064 -74.444084 -464.32968
63.782505 -77.353989 -464.82126
64.760155 -75.426727 -464.67987
59.615932 -68.218994 -462.65228
59.726505 -69.718361 -462.91721
59.869202 -71.344864 -463.18732
61.81649 -67.395676 -462.99277
61.942768 -68.967285 -463.30231
62.072033 -70.531837 -463.54327
62.193295 -72.063637 -463.78015
64.149132 -68.10022 -463.53885
64.278938 -69.659889 -463.7869
64.420204 -71.276917 -464.01862
60.206112 -61.541576 -461.65079
60.328251 -63.133526 -462.00351
61.546974 -64.150986 -462.39697
61.68248 -65.771149 -462.69333
62.547436 -62.537643 -462.34692
63.780617 -63.401752 -462.70123
63.891033 -64.885284 -462.93082
64.034065 -66.555817 -463.23999
64.815353 -62.037399 -462.67026
59.737492 -56.059406 -460.77023
60.657284 -56.058048 -461.25824
60.879391 -57.359173 -461.29742
61.084351 -58.404694 -461.35883
61.22208 -59.725628 -461.48703
61.841492 -56.305939 -462.05823
62.078564 -57.604378 -461.79617
62.250778 -58.913235 -461.73291
62.331882 -59.952694 -461.78174
62.469139 -61.035542 -462.00717
62.892754 -56.226089 -463.59109
63.077114 -57.038818 -462.81091
63.234978 -58.391415 -462.29095
63.344814 -59.438713 -462.15552
63.589115 -60.467777 -462.21036
64.191086 -57.521061 -463.7388
64.325676 -58.367134 -462.98193
64.459686 -59.715611 -462.56229
64.646271 -60.983643 -462.55048
59.551151 -54.488018 -460.62439
60.086426 -50.730476 -462.67899
60.237339 -51.808739 -461.99478
60.40942 -52.868183 -461.8317
60.495537 -54.219292 -461.40866
61.650028 -54.958008 -462.74796
59.739998 -48.040646 -460.71078
59.931683 -45.797619 -460.1731
60.032307 -47.112946 -461.0654
60.052258 -48.645748 -462.15671
59.75658 -42.614834 -458.51733
59.835995 -43.68869 -458.93939
59.820988 -44.696774 -459.48032
60.735889 -41.229221 -458.54413
60.86198 -42.364273 -459.05685
60.856247 -43.913727 -460.3443
61.813694 -39.699432 -458.49808
61.711063 -42.168022 -459.94568
61.911247 -40.814388 -459.06
62.731873 -40.751289 -459.94232
62.932674 -39.696949 -459.0451
63.914516 -39.85955 -460.43488
60.353985 -34.616154 -457.07581
60.450977 -36.083782 -457.44254
60.581814 -37.717316 -457.78525
60.69957 -39.485134 -458.07346
61.792976 -38.701385 -458.13184
62.615604 -34.505325 -457.4975
62.762985 -36.130424 -457.77664
62.856678 -37.62849 -458.06625
62.923973 -38.698315 -458.49066
63.941242 -37.992996 -458.52527
64.052139 -38.964359 -459.1828
64.922562 -34.97361 -458.04468
65.051941 -36.565231 -458.40872
65.091797 -37.807304 -458.89163
65.050629 -39.105122 -460.35062
60.226292 -32.983673 -456.71692
61.01709 -28.776394 -456.22412
61.162285 -30.394245 -456.4856
62.38377 -31.398176 -456.84668
62.518097 -33.001755 -457.16916
63.330406 -29.031071 -456.68692
64.556053 -30.060379 -457.10327
64.687637 -31.636467 -457.35574
64.804237 -33.189869 -457.67068
60.679039 -24.151112 -455.29507
60.785641 -25.682467 -455.59119
60.910641 -27.268391 -455.93387
62.965969 -24.352562 -455.79639
63.069687 -25.869364 -456.0834
63.196293 -27.44805 -456.4082
65.185608 -23.513176 -456.01352
65.306145 -25.071381 -456.31345
60.240128 -19.149305 -454.52759
61.464104 -20.170267 -454.93533
61.596085 -21.74029 -455.17484
62.465 -18.322836 -454.78595
62.825073 -22.755379 -455.5282
63.691811 -19.343548 -455.13721
63.823338 -20.931578 -455.47311
65.053497 -21.945761 -455.79605
62.324181 -16.742851 -454.53842
63.320034 -14.673368 -454.31171
64.30201 -12.566416 -454.10114
64.550339 -15.696224 -454.69409
64.664574 -17.235195 -454.96829
63.81855 -7.3205004 -453.49866
64.176697 -10.995169 -453.90579
65.094818 -8.3599472 -453.66592
65.230156 -9.9265966 -453.88144
61.088024 -2.1990077 -452.22604
62.38031 -3.1636779 -452.43369
63.610603 -4.1964545 -452.75009
63.709274 -5.744626 -453.17407
64.614471 -2.3743238 -452.53525
59.871113 -0.89982325 -451.7518
60.735329 3.0188751 -451.04907
60.858982 1.4620466 -451.32068
62.082661 0.45124018 -451.69104
62.215118 -1.1213133 -451.97513
62.984406 3.5891197 -451.3562
63.112225 2.0273521 -451.62811
64.345146 0.76165187 -452.09183
64.497414 -0.81392831 -452.27051
65.208138 4.1785207 -451.71609
65.339706 2.6172335 -452.03665
60.525368 5.6151385 -450.5274
61.411545 8.773262 -450.28366
61.546257 7.20438 -450.50024
61.760811 4.5983229 -450.94876
62.77137 6.19033 -450.87704
63.700817 8.8256779 -450.65823
63.990345 5.183136 -451.28323
64.920456 7.807404 -450.99805
65.05368 6.2487545 -451.28976
59.946602 12.890625 -449.26743
60.062267 11.337501 -449.57825
60.180779 9.7822876 -449.88812
62.100399 14.506927 -449.39774
62.228664 12.951668 -449.69901
62.334892 11.403708 -450.03421
62.471729 9.8417816 -450.30862
64.386253 14.566044 -449.80212
64.511932 13.015852 -450.14069
64.62384 11.458672 -450.42975
60.533882 20.150431 -447.97852
60.621742 18.641481 -448.54459
60.731068 17.097052 -448.85706
60.859951 15.529386 -449.1044
62.804787 20.225609 -448.43204
62.896816 18.706692 -448.93475
63.035484 17.153929 -449.20804
63.160431 15.574553 -449.40787
65.069153 20.058506 -449.05569
65.193047 18.51642 -449.44431
65.32531 16.946796 -449.67068
65.533508 -107.107 -466.71106
65.946129 -106.10991 -468.00446
66.706818 -107.51311 -466.57745
66.572823 -106.71068 -467.83826
67.322609 -106.47148 -468.77722
67.749886 -107.58316 -467.25705
68.463844 -106.05379 -469.52484
68.712837 -107.56093 -467.98517
68.920174 -107.7924 -466.82147
68.73336 -106.82726 -469.13596
69.721062 -107.47198 -468.63785
69.687889 -106.19095 -469.75574
69.974159 -107.72289 -467.81003
65.810699 -101.88166 -468.74142
65.980125 -105.28032 -468.58502
65.932648 -103.97198 -468.84793
67.065392 -102.85898 -468.93994
67.185089 -105.04079 -469.25119
68.011887 -100.7073 -468.91898
68.249863 -103.86602 -469.4017
68.303391 -105.00934 -469.65256
69.243439 -101.62331 -469.19525
69.359177 -103.34164 -469.55875
69.512054 -104.98783 -469.84998
70.58271 -104.20406 -469.91391
65.278069 -95.735512 -467.9368
65.414154 -97.472916 -468.08954
65.548363 -98.979858 -468.38165
66.504593 -96.611313 -468.26901
66.780243 -99.711395 -468.61246
67.522102 -95.264565 -468.3334
67.718597 -97.585541 -468.62177
68.753876 -96.309021 -468.68225
68.957047 -98.417252 -468.83563
69.740227 -94.63829 -468.66016
69.975311 -97.303062 -469.00064
70.170486 -99.381607 -469.14172
65.154778 -94.012459 -467.68692
65.93763 -90.070747 -467.32718
66.15049 -92.634674 -467.75253
67.153496 -90.939011 -467.70645
67.371429 -93.635132 -468.12936
68.16787 -89.242027 -467.43069
68.376381 -91.903297 -468.00714
69.408554 -90.259171 -467.79544
69.612206 -92.998032 -468.32846
70.615768 -91.187111 -468.14532
65.502441 -85.221909 -466.69846
65.727951 -87.330185 -466.76855
66.428001 -83.400299 -467.18948
66.7733 -86.253441 -466.84268
66.933479 -88.155083 -467.0932
67.658165 -84.154175 -467.28482
67.966568 -86.71656 -466.98065
68.890373 -84.93631 -467.31918
69.181305 -87.480827 -467.22922
70.18029 -85.939255 -467.30835
70.406921 -88.357903 -467.64594
65.082474 -79.738373 -465.64609
65.133095 -81.145279 -466.3606
65.212158 -82.625237 -466.88525
66.119827 -78.080399 -465.35272
66.321632 -82.134781 -466.99561
67.321289 -78.900414 -465.7533
67.389801 -80.325073 -466.31372
67.439278 -81.790863 -467.07928
67.509285 -82.859528 -467.40051
68.558388 -81.039581 -466.90784
68.624512 -82.556465 -467.5585
69.567802 -78.338043 -466.0368
69.660973 -79.735992 -466.42639
69.720718 -81.801476 -467.56775
69.819458 -83.075859 -467.79785
65.773941 -73.842735 -464.63007
65.981781 -76.312767 -465.07925
66.997292 -74.712952 -464.97595
68.001282 -73.243149 -464.86322
68.194878 -75.622925 -465.35269
68.342918 -77.39328 -465.72595
69.232391 -74.282982 -465.25079
70.443726 -75.105133 -465.66837
70.570557 -76.664368 -465.91586
65.645988 -72.323097 -464.39349
66.388847 -67.55574 -463.88428
66.531364 -69.15062 -464.09067
66.662621 -70.715935 -464.32776
67.875916 -71.700356 -464.67413
68.662483 -67.282333 -464.19421
68.79924 -69.071342 -464.51245
