ply
format ascii 1.0
comment PCL generated
element vertex 1498
property float x
property float y
property float z
element face 0
element camera 0
property float view_px
property float view_py
property float view_pz
property float x_axisx
property float x_axisy
property float x_axisz
property float y_axisx
property float y_axisy
property float y_axisz
property float z_axisx
property float z_axisy
property float z_axisz
property float focal
property float scalex
property float scaley
property float centerx
property float centery
property int viewportx
property int viewporty
property float k1
property float k2
end_header
103.18233 -66.911774 -470.45279
103.43137 -69.341484 -470.8414
99.33802 -62.500698 -469.11368
99.547821 -64.640579 -469.39661
100.4722 -61.222557 -469.23309
100.58099 -63.280289 -469.50235
101.73125 -62.019985 -469.60687
101.85503 -64.096535 -469.888
102.02759 -65.961212 -470.11725
102.95798 -63.037533 -469.90942
103.10474 -64.88475 -470.21072
103.88153 -60.862228 -469.89319
104.26546 -65.85067 -470.55746
104.28369 -63.87059 -470.28851
100.29932 -59.606308 -468.84195
102.60247 -59.822792 -469.56027
99.479286 -33.579929 -464.16751
99.628334 -36.167526 -464.66852
99.831505 -37.797234 -464.90442
100.68087 -34.578037 -464.62421
101.97222 -35.875164 -465.17935
102.89046 -33.706047 -465.04636
104.06966 -34.429916 -465.68973
99.185295 -30.907906 -463.76651
100.18889 -28.527773 -463.53879
100.43537 -31.677509 -464.20462
101.44151 -29.301443 -464.03256
101.65193 -32.696308 -464.58536
102.56898 -28.247932 -464.11102
102.66025 -30.56814 -464.4845
103.69102 -29.444647 -464.5451
103.89346 -31.3258 -464.94662
104.03255 -32.903179 -465.27533
99.751862 -23.786327 -462.6265
99.974861 -26.651831 -463.09174
100.90083 -22.738461 -462.73764
101.06431 -25.34861 -463.14536
101.31194 -27.476683 -463.62982
102.10822 -24.004145 -463.21527
102.36488 -26.129059 -463.64886
103.15015 -22.648815 -463.32275
103.44571 -25.04776 -463.73151
103.59895 -27.141169 -464.12518
104.51248 -23.445045 -463.79593
99.478691 -19.369076 -461.80365
99.722168 -21.251585 -462.15692
100.49663 -18.017841 -461.82672
101.77506 -18.785107 -462.2543
101.87697 -21.105589 -462.77576
102.81395 -17.427736 -462.38562
102.95834 -20.027378 -462.83145
103.94939 -18.417467 -462.87677
104.29856 -21.332361 -463.3761
99.092941 -14.647432 -461.05588
99.291901 -16.752483 -461.36475
100.21761 -13.808856 -461.32962
100.30376 -15.401622 -461.43607
101.26821 -12.972842 -461.70001
101.45813 -14.318115 -461.56628
101.52773 -16.155512 -461.815
102.51654 -13.495342 -461.75043
102.63944 -15.076833 -461.93683
103.74673 -13.9918 -462.07785
103.70202 -12.598191 -462.34879
103.90813 -16.343254 -462.55103
108.89864 -93.891357 -473.21622
108.92932 -93.635422 -474.06223
110.22827 -95.176514 -473.51224
105.0917 -91.453384 -474.25726
105.13587 -90.018028 -474.12241
106.18396 -88.674942 -474.19989
106.38096 -91.555428 -474.17133
106.34081 -90.527763 -474.3699
107.65089 -92.913879 -472.67221
107.43707 -89.471725 -474.54224
107.52374 -91.551994 -474.54684
107.7107 -92.596336 -474.05267
108.7233 -90.53405 -474.97321
108.83737 -92.351105 -474.88937
109.67005 -88.624535 -474.96198
109.81289 -91.800156 -475.28323
104.49284 -82.622482 -473.52075
104.69803 -84.194778 -473.28232
104.8578 -85.835747 -473.38687
106.01843 -86.790688 -473.83109
106.85841 -84.412735 -473.79245
108.18858 -85.437912 -474.16055
108.42309 -87.093513 -474.49185
104.33007 -80.064285 -473.17221
105.33221 -77.373322 -472.26019
105.38651 -79.327721 -473.06393
106.44834 -78.191704 -472.79733
107.66619 -78.958885 -473.39807
108.7461 -77.194763 -473.06439
104.83205 -71.986534 -471.46246
105.00167 -74.100113 -471.8006
106.10963 -73.052193 -471.95758
106.23837 -75.127327 -472.19424
107.09202 -71.888306 -471.98907
107.45041 -74.169106 -472.36887
107.49853 -75.930481 -472.5903
108.3916 -72.722466 -472.33139
109.50379 -71.668259 -472.4386
109.64295 -73.760475 -472.77533
109.7816 -75.363937 -473.06433
104.46573 -67.745636 -470.82843
104.6318 -70.345169 -471.24298
105.55476 -66.672813 -470.97693
105.81153 -68.605537 -471.31039
106.78526 -67.449905 -471.39627
106.94495 -69.555405 -471.72903
107.97759 -66.455978 -471.52588
108.04259 -68.491035 -471.83026
108.2467 -70.629601 -472.0798
109.17262 -67.447342 -471.92181
109.2928 -69.526833 -472.17511
105.16251 -62.414581 -470.28259
105.46579 -64.868317 -470.70352
106.30375 -61.127956 -470.43564
106.4397 -63.718143 -470.85309
107.52374 -61.895256 -470.85855
107.74555 -64.789658 -471.28278
108.62771 -60.828373 -471.03671
108.73067 -62.908119 -471.27707
109.08798 -65.391747 -471.60153
109.82018 -61.58839 -471.36554
105.04326 -59.554863 -470.23404
107.40825 -59.804104 -470.69186
105.31427 -33.429443 -465.88248
104.90384 -28.438473 -464.66937
105.02177 -30.259338 -465.09802
105.30847 -31.918598 -465.48471
106.14268 -29.194489 -465.23114
106.34314 -30.80369 -465.61969
107.24503 -27.859491 -465.20798
108.11604 -29.034527 -465.88553
108.37307 -30.081732 -466.39648
104.64977 -26.04702 -464.21945
105.5815 -22.102425 -463.84006
105.69595 -24.441784 -464.2724
105.9378 -27.08215 -464.71338
106.72727 -23.087973 -464.35379
107.08493 -26.012424 -464.85986
107.93974 -23.579107 -465.05103
107.95869 -24.637745 -465.16461
108.188 -26.736961 -465.57681
105.13 -17.089643 -463.03738
105.28413 -19.457651 -463.29102
106.3965 -17.856413 -463.40405
106.56808 -20.222261 -463.77499
107.42342 -18.846815 -463.98956
107.67467 -21.4809 -464.53644
104.95002 -14.736761 -462.53918
105.89617 -12.815147 -462.94714
106.14644 -15.488751 -462.97705
106.92575 -13.961668 -463.11929
107.16396 -12.760077 -463.45026
107.38525 -16.226471 -463.66223
113.98872 -98.958412 -476.93396
114.30331 -99.593979 -475.39371
110.01215 -93.658112 -475.19412
110.28743 -94.682053 -474.8819
111.31023 -93.929634 -475.75803
111.53431 -96.24044 -474.90588
111.43546 -94.975319 -475.72095
112.29774 -93.62722 -476.08813
112.42183 -94.975632 -476.16818
112.74286 -97.536957 -475.02917
112.99699 -97.666649 -473.75439
112.70055 -96.545128 -475.97958
113.50209 -97.339516 -476.42578
110.93008 -89.421486 -475.26611
110.98936 -91.480095 -475.52768
111.22266 -92.617973 -475.7052
112.11026 -88.400337 -475.38953
112.12531 -90.419769 -475.63293
112.3736 -92.102531 -475.89948
110.68539 -86.25779 -474.90024
110.72237 -72.441978 -472.87518
110.91399 -74.320404 -473.2146
110.99731 -76.133621 -473.54593
110.25954 -66.367416 -471.98032
110.41649 -68.475632 -472.2753
110.61018 -70.607506 -472.56821
109.99489 -63.690002 -471.60144
35.052746 -44.15501 -453.45621
36.255096 -44.989552 -453.80936
37.091022 -41.324722 -453.38431
35.272263 -18.461193 -449.1459
35.136677 -16.895065 -448.88284
37.198151 -15.262669 -449.28183
33.067616 -5.276022 -446.55209
35.076473 -3.1188695 -446.81833
35.23864 -4.6661825 -447.20013
32.745281 12.360677 -443.79959
37.121639 13.796917 -444.56424
40.47702 -27.180048 -451.75958
42.38118 4.3737259 -447.79956
42.723606 14.505125 -445.746
43.208565 -99.190651 -461.63141
43.217773 8.2956619 -446.9043
44.526131 5.7553196 -447.78275
43.097198 9.845952 -446.60611
45.215408 11.728018 -446.74469
43.743023 15.84123 -445.78268
45.766605 18.76392 -445.76166
45.903049 17.206503 -446.01657
47.120499 16.198248 -446.40543
90.256752 -99.183754 -465.59039
90.596725 -100.53433 -463.09241
90.150253 -98.285538 -466.8602
91.401627 -97.688583 -463.47278
91.085136 -96.603889 -466.21094
90.90406 -96.180428 -467.70868
91.306221 -97.05146 -464.78729
92.269508 -95.664688 -464.56955
92.102142 -95.24054 -466.00443
92.479836 -96.121498 -463.15646
92.036324 -94.676918 -467.60266
93.474808 -94.816551 -463.39908
93.159897 -94.160652 -465.98141
93.041199 -93.781067 -467.46103
94.599991 -93.828987 -463.29501
94.31295 -93.375648 -465.62146
94.037697 -92.904976 -467.84888
95.658043 -92.913383 -463.75906
95.349449 -92.423088 -466.41083
96.746666 -92.445671 -463.17331
96.49408 -92.089622 -465.52353
96.313553 -91.552284 -467.54703
97.907654 -92.290085 -462.9996
97.635513 -91.73542 -465.87762
97.551056 -91.53875 -466.74261
97.420494 -91.195076 -468.12689
98.87394 -92.322037 -464.4451
98.546242 -91.509254 -467.276
98.754784 -91.926376 -465.98929
100.13422 -93.339058 -464.36026
99.990173 -92.562164 -466.3934
100.91391 -93.077644 -468.38318
101.20824 -93.318802 -466.92371
91.118126 -103.36975 -460.1669
91.323837 -104.84792 -459.54535
91.899513 -99.212608 -459.63431
91.663994 -98.343384 -461.61551
92.558998 -96.921165 -461.36984
93.128952 -98.518196 -457.56149
92.980339 -97.398422 -459.13321
93.732933 -95.83989 -460.48999
94.222176 -96.359917 -457.77713
93.678177 -95.273643 -461.96384
94.810066 -94.449089 -461.27017
95.680519 -93.305756 -462.19211
97.092239 -93.042778 -458.62524
96.832268 -92.695053 -461.72958
98.288155 -93.182411 -457.81702
98.222458 -92.950432 -459.18347
98.141937 -92.692268 -460.67487
99.25396 -92.93232 -460.86288
99.134247 -92.701057 -462.34058
93.068306 -107.26611 -455.91458
94.183327 -107.22187 -455.7709
94.387039 -108.67774 -454.88007
95.448196 -109.46928 -453.9433
95.431915 -108.69456 -455.43329
92.632225 -104.84435 -456.72195
93.038048 -106.00943 -456.4444
93.437614 -103.0558 -455.73032
93.700737 -104.08039 -455.87805
93.870094 -101.84561 -455.388
94.716499 -101.97016 -455.2236
94.891357 -102.95232 -455.40271
95.283005 -106.95034 -455.87018
93.898354 -100.87643 -455.38824
93.837524 -97.02224 -457.10684
94.369728 -99.56012 -455.30823
94.636757 -98.640533 -455.37943
94.82309 -101.0766 -455.15546
94.710121 -97.472343 -455.63043
95.60038 -109.75831 -455.60611
96.085663 -109.99154 -454.10403
96.459831 -109.61112 -455.64276
96.490341 -107.92252 -455.86954
96.726753 -110.78361 -456.53754
96.534813 -111.35089 -459.04199
97.584343 -107.90435 -456.06454
97.68248 -110.90373 -455.89465
97.67334 -108.91955 -456.13663
97.819977 -110.01468 -456.30136
98.585152 -107.32936 -456.23175
98.759064 -108.90514 -456.41681
98.888054 -110.37057 -456.50217
99.93914 -109.65373 -456.67978
100.13105 -111.18044 -456.57269
100.90964 -108.58739 -456.85242
96.028969 -102.27055 -455.33664
96.091927 -104.02445 -455.64383
96.294388 -105.63354 -455.88043
96.400124 -106.96499 -455.879
97.334183 -104.84771 -455.82578
97.470718 -106.40965 -455.95093
98.267105 -102.59244 -455.58057
98.529778 -105.6709 -456.04425
99.417549 -103.51649 -455.9194
100.60831 -104.54348 -456.36511
100.73209 -106.51736 -456.64511
95.620636 -99.612045 -455.00348
95.76284 -98.312004 -455.07416
95.833549 -100.92977 -455.10706
96.637909 -96.933327 -454.97519
96.73175 -98.045128 -455.00974
96.843079 -99.054306 -455.14066
96.927261 -100.24638 -455.25607
97.735077 -97.34874 -455.02145
97.950348 -99.226028 -455.27185
98.13308 -101.04182 -455.38116
99.922447 -97.122421 -455.53256
100.14687 -98.736145 -455.60522
100.31187 -100.72897 -455.68839
96.494064 -96.013458 -455.34683
97.560783 -95.650635 -455.07175
97.554131 -94.769928 -455.42502
97.589134 -93.820869 -456.57465
98.422714 -93.535378 -456.24863
98.588486 -94.184967 -455.69791
98.692734 -95.000572 -455.30496
98.804947 -95.97937 -455.23438
99.700638 -94.28183 -455.45914
99.828728 -95.458817 -455.35696
100.83289 -94.88282 -455.52441
100.7919 -93.718315 -456.0296
100.99469 -95.936188 -455.6347
101.29309 -112.14732 -456.61758
102.09293 -109.58852 -457.14523
102.44521 -111.25698 -457.18445
103.12596 -108.55412 -457.26569
103.516 -112.41795 -457.53909
104.39189 -109.39878 -457.5144
104.56847 -110.95901 -457.67612
105.45582 -108.23254 -457.65295
105.68141 -112.13764 -458.11334
106.60171 -109.37226 -458.04163
101.49878 -102.14757 -456.10574
101.8933 -105.50078 -456.82553
102.76118 -103.08392 -456.54529
103.04404 -106.63826 -457.11108
103.76827 -101.7868 -456.53336
103.92885 -104.03403 -456.89673
104.97793 -102.82187 -456.91281
105.12532 -105.03052 -457.18405
105.2767 -106.60414 -457.38889
102.13879 -96.420792 -455.90179
102.34661 -98.674889 -455.92834
102.49563 -100.85081 -456.108
103.41321 -97.474693 -456.08023
103.64133 -99.804031 -456.17889
104.63083 -98.484093 -456.24139
105.50451 -96.381599 -456.27835
105.76218 -99.605453 -456.58514
105.9404 -101.44745 -456.88757
101.9172 -94.148392 -455.82025
101.83562 -93.368279 -456.68951
102.96922 -93.424789 -456.34079
103.20027 -95.185257 -456.02231
104.15968 -94.151657 -456.24774
104.30424 -95.6343 -456.11597
105.23416 -93.666962 -456.59528
105.38247 -94.888023 -456.2912
106.49674 -95.369797 -456.44617
106.72778 -110.89796 -458.22842
107.64662 -107.91609 -457.99335
108.74048 -109.42927 -458.5097
109.71742 -107.18974 -458.19507
110.97842 -107.86303 -458.78799
107.16003 -102.70929 -457.28119
107.30733 -104.48657 -457.45789
107.42973 -106.00403 -457.6709
109.33096 -102.37626 -457.64114
109.52024 -103.99643 -457.89792
109.605 -105.69897 -458.04889
110.87279 -106.33961 -458.53195
106.7323 -97.62236 -456.55829
107.74174 -96.60614 -456.71582
107.96102 -98.646095 -456.84143
108.03703 -100.30632 -457.04489
108.56847 -95.834412 -457.09283
108.86687 -97.101608 -456.99954
110.1506 -98.824425 -457.42694
110.30822 -101.0537 -457.69595
107.58994 -94.643929 -457.04977
108.71893 -94.91452 -457.65588
96.01738 -109.36076 -449.74014
96.595619 -110.06049 -452.26178
99.504799 -111.26521 -449.84488
99.422523 -111.11023 -450.78043
43.883324 -7.8275347 -421.78735
47.353195 -2.8112757 -424.58191
45.201561 -7.505054 -420.98291
52.114273 -22.818308 -422.70593
50.161144 -18.826958 -419.22839
51.158161 -20.983414 -420.78506
51.137829 -22.007576 -421.78995
52.315765 -19.75856 -419.80484
49.627216 -12.136619 -417.76489
50.560478 -10.885697 -417.77765
53.119396 -23.507935 -423.70255
55.130592 -23.692709 -424.92661
57.398716 -16.804939 -419.46869
56.200825 -6.8120203 -420.0144
61.285988 -18.822023 -424.59363
59.269817 -15.749857 -420.21094
61.256767 -15.557765 -422.33139
-4.7266841 -70.782112 -465.81262
-4.5597839 -70.243431 -465.07254
-4.2624836 -69.536217 -464.03516
-2.9955072 -67.956314 -463.12894
-3.1151004 -70.792023 -464.51437
-2.9493797 -69.297432 -463.57681
-3.4011173 -62.25209 -462.10681
-3.197567 -65.008583 -462.56604
-3.0472438 -66.824776 -462.93948
-3.686868 -58.522934 -461.35065
-3.6006732 -60.178986 -461.76688
-2.3467803 -61.163067 -462.29364
-4.2776709 -37.207722 -457.84726
-3.0498755 -38.006065 -458.21411
-4.7489576 -31.405748 -456.68762
-4.6564455 -32.420269 -456.94241
-4.455925 -35.663136 -457.59204
-3.5397727 -31.652069 -456.94333
-3.4370961 -32.962456 -457.22757
-3.3314352 -34.547489 -457.60175
-2.3493476 -31.877525 -457.29114
-3.6058526 -30.663773 -456.55542
-2.4024873 -30.943279 -456.88358
-1.8310744 -68.175529 -463.21579
-1.7323287 -67.308502 -463.27509
-1.4845166 -68.917953 -463.07324
-1.4022911 -69.942162 -462.68686
-0.65516472 -68.051933 -463.14206
0.1228006 -68.803421 -462.34378
0.58183509 -67.207779 -463.37335
0.94239992 -67.87748 -462.89679
-2.1540627 -63.348755 -462.55786
-1.9677918 -65.727356 -463.05121
-1.1334237 -62.02058 -462.6601
-0.91154897 -64.115807 -462.96918
-0.69630331 -66.493111 -463.37775
0.17980839 -62.71183 -462.97507
0.3449733 -64.865669 -463.37152
0.4521465 -66.203979 -463.58325
1.43892 -63.781311 -463.39432
1.5885952 -65.376228 -463.70969
1.7697216 -66.878952 -463.39542
2.6713662 -64.571793 -463.78464
2.7782621 -66.126389 -463.65375
-1.3608022 -57.93784 -461.72046
-1.3697711 -59.377045 -462.2305
-0.1004428 -60.074284 -462.64505
0.96518838 -57.887451 -462.3331
1.2022614 -60.801449 -462.94193
2.1744719 -58.731689 -462.73776
2.4248095 -61.655434 -463.23682
0.89170742 -56.421864 -461.74799
-1.9448494 -36.860794 -458.3461
-1.7971647 -38.789921 -458.5621
-0.70178068 -37.672329 -458.65338
-0.5080772 -39.504551 -458.95984
0.74991781 -40.311718 -459.19183
1.5571837 -36.296715 -458.83984
1.6397287 -37.925423 -459.23541
2.0115261 -41.097836 -459.50253
2.8886929 -38.675266 -459.64307
-2.0970435 -35.309219 -458.03506
-1.2296585 -31.166878 -457.25845
-1.1416188 -32.028927 -457.65543
-1.067908 -33.126453 -457.87924
-0.0130156 -31.809843 -457.84665
0.1850168 -33.898785 -458.24258
0.29052609 -35.541119 -458.4913
1.1111616 -31.313633 -457.85098
1.2110246 -32.317528 -458.16422
2.4023118 -31.523806 -457.95142
2.4063516 -32.590282 -458.39011
2.5015025 -33.622211 -458.62521
2.6317523 -34.914043 -458.86615
-0.14440569 -30.91674 -457.5032
3.7003756 -62.358711 -463.63901
3.8214815 -64.004501 -463.9104
3.997432 -65.622589 -463.85425
4.387073 -66.246468 -463.16833
4.9310584 -63.184975 -464.00089
5.0858603 -64.80024 -464.1561
6.1554685 -64.023544 -464.33679
7.1706657 -61.789722 -464.26773
3.2180007 -56.798721 -462.63818
3.4468293 -59.429108 -463.14264
4.4437714 -57.582214 -463.07352
4.6841993 -60.241146 -463.49713
5.6799283 -58.694016 -463.50043
5.9240122 -61.020649 -463.88861
6.7481904 -56.971474 -463.51462
6.9951854 -59.623989 -463.90335
8.0123529 -58.351131 -463.9538
3.1643755 -54.00581 -461.43021
3.1227796 -55.216576 -462.22635
4.1451297 -52.03133 -461.06799
4.1704502 -53.059338 -461.91412
5.1848989 -51.685448 -462.08817
5.2764659 -53.351578 -462.54965
5.3845549 -54.851658 -462.89987
5.4977498 -56.235729 -463.11874
6.3251553 -51.942883 -462.58496
6.4636941 -53.759827 -462.98569
7.5325637 -52.40733 -462.97314
7.7077689 -54.558575 -463.36032
5.22648 -48.765877 -460.08148
5.2515869 -49.32309 -460.77316
5.2330089 -50.432899 -461.51514
6.0506506 -47.156288 -461.48395
6.1542611 -48.008083 -461.69434
6.1438451 -49.974621 -462.09665
6.1683779 -49.032696 -461.88455
6.2422423 -50.83033 -462.32547
7.0955577 -46.85606 -462.06119
7.1577053 -48.154011 -462.24268
7.2309833 -49.160358 -462.40988
7.3408256 -50.040825 -462.50131
7.4211802 -51.14344 -462.69766
3.2249804 -41.859718 -459.97211
3.4348495 -43.266567 -459.45776
4.3836408 -42.363472 -460.53595
4.572854 -43.69619 -460.6575
4.732852 -44.770329 -460.44159
5.0095673 -46.420349 -459.69937
5.4365773 -41.24638 -460.6937
5.5395141 -42.588482 -460.95844
5.6663451 -43.927288 -461.14114
5.795785 -45.00061 -461.2467
5.9245858 -46.068005 -461.33145
6.6693077 -42.025398 -461.11435
6.8003664 -43.62492 -461.39624
6.8797894 -44.694599 -461.60806
6.9423013 -45.754562 -461.82941
7.8983455 -42.834553 -461.50494
8.026 -44.393402 -461.83655
3.0442388 -40.206509 -459.91656
3.952312 -37.320202 -459.64807
4.2535534 -41.066055 -460.33786
5.1724887 -38.080132 -460.11032
5.2885823 -39.688938 -460.44638
6.2121248 -36.449482 -460.08167
6.545167 -40.426128 -460.80768
7.4743667 -37.19379 -460.43884
7.5734863 -38.823788 -460.77481
3.5656414 -32.418926 -458.39761
3.6633308 -33.32436 -458.80133
3.829381 -35.732876 -459.32605
4.8188357 -32.817982 -458.81485
4.8394561 -33.864399 -459.26907
6.0399957 -33.774536 -459.45276
6.0741258 -34.883137 -459.78275
8.227644 -60.424335 -464.30957
9.073328 -56.993507 -463.95633
9.2419338 -59.13525 -464.31128
9.3689651 -60.758659 -464.68265
10.36923 -57.715912 -464.2457
10.412656 -58.574558 -464.31827
10.729926 -59.601192 -463.60895
11.447659 -56.641087 -464.27454
11.618208 -58.283882 -464.07233
11.934942 -58.00605 -463.23166
12.333075 -57.603729 -462.14731
8.7828054 -53.208065 -463.30444
8.9479446 -55.384056 -463.68689
9.819849 -51.54343 -463.35367
10.048852 -54.194698 -463.74921
11.028964 -52.383213 -463.70493
11.279604 -55.024784 -464.16479
12.178772 -51.283421 -463.53387
12.247453 -53.209419 -464.0282
12.370946 -54.196423 -464.33234
12.463436 -56.169716 -464.48212
8.2692461 -47.617863 -462.46872
8.4353933 -49.217216 -462.63623
8.5812311 -50.796352 -462.89935
10.631191 -47.274067 -462.80719
10.777138 -48.87524 -463.04846
10.906783 -50.486595 -463.33426
12.924109 -46.43401 -463.07437
12.965363 -47.513187 -463.40704
13.049893 -48.600769 -463.54263
8.1480961 -46.02491 -462.15079
10.132491 -41.429783 -461.76471
10.234478 -42.73962 -462.0675
10.311468 -44.133617 -462.33847
10.46397 -45.693596 -462.60678
12.564923 -41.722904 -461.84885
12.553048 -42.549026 -462.19144
12.794622 -44.30209 -462.55325
12.811898 -45.430679 -462.79224
8.6167898 -35.945385 -459.9577
8.8085928 -39.58699 -461.18839
8.9268961 -40.90583 -461.4144
9.8208904 -37.252888 -460.6264
9.9004021 -38.543987 -461.10129
10.039736 -40.089954 -461.48029
11.130369 -39.15461 -460.99744
11.239721 -40.665451 -461.71484
8.9180555 4.7072611 -453.01453
11.200494 5.0670295 -453.56924
11.307437 3.4982619 -453.89822
12.531971 2.7509291 -454.35086
9.5567331 10.102283 -452.65524
9.6800222 8.9906178 -452.7059
9.8345871 7.6322989 -452.78879
9.9764023 6.0614905 -453.01523
10.751378 9.6142368 -453.04755
11.647593 10.749851 -453.72458
11.870017 9.604744 -453.41324
12.071513 8.2758465 -453.35165
12.213405 6.9501314 -453.46133
13.09607 9.1542492 -453.74252
13.263619 8.0346546 -453.69281
9.4643459 11.177435 -452.47949
10.581568 10.96314 -453.04141
13.392197 -51.605545 -463.55832
13.431762 -53.545799 -464.06799
13.788362 -52.495464 -463.33264
14.064241 -51.967476 -462.45453
13.303146 -49.893024 -463.52954
14.120594 -46.520237 -462.87192
14.112267 -47.254482 -463.52936
14.151529 -48.316101 -463.84076
14.242161 -49.354561 -463.73856
14.747975 -46.00367 -462.15894
14.851473 -10.508554 -456.63449
14.983444 -12.115184 -457.07986
15.069098 -13.69555 -457.51166
17.112846 -11.167318 -457.68524
18.181076 -10.08919 -457.9465
14.464193 -5.7442222 -455.72015
14.606315 -7.3504815 -456.05539
14.731071 -8.9211636 -456.34277
16.784019 -6.1900706 -456.62555
16.921627 -8.0252666 -456.94113
17.035797 -9.3604555 -457.20239
18.009142 -6.9234905 -457.00977
15.102051 0.1326308 -455.1969
15.218703 -0.94625819 -455.27133
15.301673 -1.9935783 -455.49973
15.417974 -3.5884414 -455.86328
16.287914 -0.096153498 -455.52515
16.610603 -4.6003966 -456.44022
17.504938 -0.83661348 -456.0206
17.590437 -2.1642616 -456.2822
13.537387 4.6364975 -454.30222
13.613088 2.246057 -454.89084
14.787806 3.3386197 -454.85019
14.86408 2.2740853 -455.02734
14.996715 1.2028273 -455.13461
15.78269 5.1557407 -454.59259
15.969909 3.9228616 -454.95218
16.018316 2.5755267 -455.22504
16.124041 1.5113009 -455.37024
17.037439 4.6803269 -454.8779
17.080797 3.3563547 -455.23624
18.24519 4.862144 -454.5925
18.376823 3.9156635 -455.01071
18.345396 2.8696594 -455.47192
13.417965 6.1949172 -453.92252
14.071841 9.7578287 -454.53024
14.303883 8.9042377 -453.97717
14.427353 7.8289089 -453.95258
14.647972 5.7126064 -454.26999
15.509032 8.3151188 -453.73938
15.629647 7.5506182 -453.99792
15.741442 6.5159492 -454.30359
16.681599 6.8508768 -453.98654
16.929482 5.939014 -454.41354
19.077728 -5.3109527 -456.91095
19.138172 -6.3859253 -457.1322
19.191395 -7.6935492 -457.61185
19.214352 -8.9891062 -458.26215
20.186357 -5.6835313 -457.47421
20.161898 -6.7801991 -458.03455
20.623535 -4.3800788 -460.1669
18.599379 -0.0160143 -456.09439
18.743179 -1.3273399 -456.34854
18.858101 -2.9387021 -456.54529
18.9361 -4.021492 -456.67828
19.716547 -0.30657911 -456.15704
19.823318 -1.3720322 -456.32892
19.981106 -2.412544 -456.521
20.041298 -3.5033691 -456.70694
20.186983 -4.4844666 -456.99524
21.17988 -0.63239908 -455.6124
21.27424 -1.6666034 -455.91965
21.188793 -4.0528131 -457.15802
21.316542 -2.9587908 -456.41187
18.508608 1.5794626 -455.77481
19.506311 2.2894783 -455.48788
19.634897 3.0552113 -454.98773
19.685595 1.2856731 -455.76297
20.72121 1.6061037 -455.11646
21.039501 0.65222031 -455.25809
50.17672 -93.702721 -474.53375
56.462471 -100.19596 -476.99051
58.48048 -97.446617 -476.83002
58.747562 -99.694572 -477.31131
58.399937 -96.618591 -476.22049
60.481842 -104.70189 -477.39838
78.611221 -41.615875 -470.64517
80.332848 -47.234524 -470.96713
80.503807 -48.857864 -470.20248
-4.7159271 -30.580023 -456.02386
-3.7424009 -30.316549 -452.77081
-3.0736046 -29.851795 -454.75626
-2.0354419 -30.234032 -455.58658
-5.2098975 4.3279982 -450.33905
-6.7564783 9.0303965 -449.12802
-6.5406089 6.8955183 -449.28207
-6.3800573 5.3018751 -449.59036
-5.6636267 10.105697 -449.15878
-5.482049 8.2578907 -449.46872
-4.4161077 9.3570528 -449.5643
-4.2264509 7.4935617 -449.77817
-4.0430026 5.8959842 -450.0054
-3.2868104 9.9099932 -449.65863
-3.178719 8.5981703 -449.91501
-2.8670757 5.1435966 -450.38849
-1.9135611 7.834825 -450.2807
-6.8649669 10.838316 -448.62012
-4.500371 10.64223 -449.17499
-3.2683332 11.140466 -448.99377
-2.1384428 10.709423 -449.64789
-0.4547739 -70.439674 -460.65424
0.29568699 -69.354942 -461.1871
1.0964011 -69.820663 -458.57178
1.6224695 -68.440994 -460.91464
1.9463035 -68.630394 -459.68567
2.4455051 -69.226585 -457.83499
2.6896169 -67.594414 -461.0329
3.6914072 -68.374229 -457.88293
-0.3534939 -30.40654 -454.06802
1.2449777 -30.739201 -452.95578
1.7163577 -30.467552 -456.52109
2.370996 -31.081154 -453.33533
-1.5834001 4.3983188 -450.83621
0.68531358 4.7359653 -451.32794
2.9752548 4.8123364 -451.91748
-1.7354468 6.2265878 -450.47195
-0.95739919 10.255925 -450.16226
0.2238722 9.5237074 -450.6152
0.41945681 7.9115191 -450.80392
0.56770539 6.3246522 -450.93546
1.3632402 10.345829 -450.75504
2.5805545 9.5844469 -451.08728
2.7757709 7.9784985 -451.27994
2.8974617 6.3887734 -451.48239
0.1673864 11.054071 -450.11707
2.5110571 11.129779 -450.63174
4.2810836 -67.164818 -459.25928
4.913816 -66.415283 -461.17865
5.8248649 -66.797165 -457.75006
7.0021486 -65.79921 -457.66367
5.2438545 -47.216755 -459.4736
3.9730413 -31.812366 -457.38968
4.6259174 -32.046093 -454.53397
6.2016087 -32.788555 -453.8374
7.3204885 -33.539978 -454.58417
8.6153727 -34.361565 -454.61108
3.7633188 -31.468618 -453.20883
5.37533 4.8953128 -452.36612
4.9516788 9.6450882 -451.53186
5.132422 8.0426149 -451.76886
5.2470088 6.453917 -451.97006
7.2527022 10.247721 -451.92361
7.362462 8.9269218 -452.13544
7.5250545 7.3176017 -452.32077
7.6584072 5.7326527 -452.61923
4.873477 11.198816 -451.07294
7.2512798 11.482822 -451.26666
8.4239836 -63.777187 -462.00793
9.0521097 -63.651928 -458.09314
10.317803 -62.674625 -457.83148
10.555354 -61.23267 -460.48065
11.763573 -59.922951 -460.07755
12.202225 -60.166546 -458.34048
13.379743 -41.39843 -459.50781
10.794816 -37.129387 -457.00452
12.233055 -37.819084 -455.88538
12.026346 -38.7892 -458.5506
13.81072 -39.869179 -455.79572
9.4699373 -35.857044 -456.63519
9.9538422 -35.2225 -454.36493
11.229573 -36.286366 -454.54736
11.227159 10.074883 -449.87943
8.3855791 11.06162 -451.9043
9.2673512 11.565934 -448.9191
14.870964 -45.707195 -460.07513
15.223982 -44.249516 -457.52921
15.73535 -43.786583 -455.42712
13.947635 -41.30954 -456.82907
13.889393 0.8205995 -453.46082
16.440746 8.8842058 -451.34717
17.274462 7.554184 -453.13266
17.579664 7.6066356 -451.75336
17.998615 7.3549747 -449.31647
18.662758 5.93151 -453.35162
20.224316 4.0507641 -451.1911
21.653297 1.7514288 -451.76248
21.564941 1.8834209 -453.44147
22.111654 1.8509585 -450.16611
18.853966 6.0802245 -452.47723
19.1926 6.0150828 -450.59305
56.384819 -93.487335 -472.19476
57.701275 -93.691582 -471.33453
60.337383 -48.584 -462.29468
60.429512 -96.381065 -470.26129
64.488708 -57.457024 -463.85663
60.375225 -50.66872 -462.81674
66.344337 -38.838135 -461.8569
73.947617 -59.705303 -465.05283
76.585037 -90.315552 -469.37875
78.390671 -84.729279 -468.97601
80.394524 -55.323025 -465.34204
80.3274 -54.042137 -465.83221
85.070198 -95.216873 -471.2374
82.589066 -79.847664 -469.01022
80.678635 -49.679279 -468.89349
-1.3225312 -30.366228 -448.70377
-4.8390388 10.325386 -441.93518
-4.2546029 10.266065 -439.93961
-2.4038804 10.340093 -442.02347
-1.889105 10.259831 -440.22095
0.49498269 -70.403511 -456.80148
2.3235345 -70.199417 -454.79999
4.1157937 -69.741493 -452.40436
-0.55725962 -30.458097 -446.02072
-0.4412244 -30.399328 -450.02084
0.29490191 -30.38592 -447.39243
2.2089827 -30.67045 -449.52261
2.6118302 -30.625546 -447.93558
3.0894377 -31.012638 -450.70303
-0.085065499 10.390205 -442.47165
0.457041 10.288944 -440.54468
1.7569748 10.693465 -444.53662
2.4526038 10.514112 -442.05212
3.0867343 10.652434 -444.17636
5.1885695 -69.181198 -452.59311
5.7185822 -68.439392 -454.75507
6.3991599 -68.705513 -452.52472
4.9921203 -68.056007 -456.78641
6.4157882 -67.216675 -456.33273
6.78408 -67.605034 -454.80228
7.4591141 -67.930817 -452.77335
7.7310028 -66.7061 -454.99149
8.6487017 -67.553314 -452.40521
8.5224133 -64.862892 -456.67023
8.8249187 -65.439102 -455.02695
9.37609 -66.176384 -453.2179
6.8513532 -32.479618 -451.15179
7.2692795 -32.324017 -449.52359
7.5903859 -32.346832 -447.94049
7.9066701 -33.303905 -452.55988
8.6283731 -33.025127 -449.53372
8.9481411 -33.073429 -447.82709
4.5121427 -31.382023 -450.43805
4.9708905 -31.299137 -448.62701
4.8101625 10.586324 -442.31677
5.5226426 10.654944 -444.20193
7.1615672 10.647131 -442.58804
7.5181508 10.842277 -445.78275
8.6717024 10.493748 -441.41034
9.0572147 10.740567 -444.62137
11.392508 -84.370743 -454.9404
13.695495 -84.476524 -455.53354
12.498238 -83.707275 -455.13242
13.606767 -83.272614 -455.16409
9.7528639 -66.973686 -452.3287
9.9520435 -64.358604 -454.76941
10.435816 -64.933563 -453.47794
10.8234 -65.962257 -452.49911
10.686013 -63.152992 -455.42917
11.753673 -65.299072 -452.44177
11.920593 -64.477264 -452.73825
12.714177 -64.00338 -452.46942
11.736301 -61.774498 -456.26144
12.074686 -61.97863 -454.79724
12.94034 -63.146988 -452.77014
13.90227 -62.270714 -452.58051
12.826297 -37.301128 -453.8685
9.2498169 -33.788624 -451.78305
10.078491 -33.664268 -448.02383
10.380553 -34.76405 -452.63315
10.909422 -34.536705 -450.77118
11.223251 -34.515606 -449.07755
12.045769 -35.788612 -451.70245
12.488485 -35.861996 -449.18762
13.458489 -37.159004 -450.29678
9.5572119 10.682281 -442.68628
11.008236 10.733029 -446.50739
11.509296 10.651387 -444.51035
11.87514 10.555635 -442.95724
12.111294 10.500582 -447.01831
13.73986 10.039977 -445.61176
14.259654 10.082177 -443.2865
18.278399 -96.215675 -457.51752
18.427395 -97.738281 -457.75555
18.584564 -99.286301 -457.9422
17.869846 -91.518646 -456.76532
18.033604 -93.275894 -457.05731
19.253601 -94.270477 -457.45444
14.875453 -85.038788 -455.78345
15.10943 -86.26371 -455.67151
15.936114 -84.209633 -455.99213
17.161457 -85.013161 -456.24081
17.380461 -86.240814 -456.12875
18.221796 -84.444962 -456.54538
19.410461 -84.988647 -456.83432
19.617048 -86.238533 -456.67761
19.817175 -87.815727 -456.68292
14.739567 -83.832466 -455.65186
15.898905 -82.79895 -455.49948
17.030453 -83.721611 -456.12573
18.139931 -81.619537 -455.41635
18.141863 -83.157654 -456.2019
19.264133 -82.458748 -456.20319
19.291817 -83.91069 -456.77609
19.849461 -74.989281 -454.78366
14.924926 -61.213032 -452.46237
14.959306 -59.948097 -452.82236
15.81141 -58.35067 -452.63736
16.202965 -60.442421 -452.20212
16.796637 -56.781326 -452.33157
17.085056 -58.102196 -452.05438
17.751368 -53.926556 -451.94525
18.073296 -55.459129 -451.83951
19.078039 -53.090176 -451.54538
17.517254 -52.358608 -451.94394
17.830238 -50.932247 -451.61246
18.57399 -48.183655 -450.8819
18.653894 -49.769066 -451.14111
18.838787 -51.842297 -451.42944
16.223633 -43.565273 -451.81287
16.096775 -43.595158 -453.82382
16.97324 -43.163776 -450.44202
18.394756 -46.62674 -450.70596
14.781676 -39.459858 -450.77225
14.537195 -39.385143 -453.28735
15.493181 -39.064056 -449.24615
16.805702 -42.207779 -450.10004
14.824409 9.5266638 -446.67929
16.609535 9.2606964 -443.62976
17.270229 8.2444181 -447.2912
17.618109 8.5787764 -445.14072
17.851871 8.5019426 -443.71854
18.605444 7.4278312 -446.51602
18.91795 7.4985194 -444.47751
15.159309 9.6994886 -444.97961
15.465223 9.7706909 -443.26675
22.096233 -100.53209 -458.75592
22.244352 -102.15114 -458.98004
23.245613 -101.61948 -459.3696
23.487274 -102.87515 -459.35754
24.203266 -99.781815 -459.52081
24.413576 -102.17333 -459.81631
24.596123 -103.13326 -459.72678
20.43025 -95.102928 -457.94061
20.600662 -96.665031 -458.0585
20.779715 -98.202026 -458.13016
21.972134 -99.00531 -458.52985
22.755594 -95.892052 -458.59552
22.91305 -97.426994 -458.72003
24.080729 -98.249023 -459.29303
24.889833 -94.94339 -459.10742
20.030352 -90.671761 -457.27762
20.154467 -92.196449 -457.55441
21.375031 -93.267532 -457.99689
22.221409 -89.875854 -457.65543
22.350386 -91.442307 -457.93643
22.572779 -94.2342 -458.45865
23.53179 -92.271057 -458.41095
24.488224 -90.160622 -458.27124
24.730043 -93.229134 -458.87961
19.91308 -89.160912 -456.96759
21.566174 -84.132347 -457.36197
21.701015 -85.19278 -457.35089
21.938084 -86.721802 -457.18457
22.098631 -88.217026 -457.31479
23.817566 -84.200592 -457.91937
23.98016 -85.401855 -457.90244
24.211033 -86.952362 -457.74814
24.337248 -88.343056 -457.94202
20.355366 -80.716309 -455.68362
20.388403 -83.439751 -456.90015
21.348005 -79.113899 -455.68518
21.525524 -81.464355 -456.16998
21.511755 -82.850388 -456.91281
22.554203 -79.967918 -456.02875
22.656048 -82.126114 -456.80591
22.650057 -83.609413 -457.53857
23.741116 -80.707642 -456.44708
23.748819 -82.8741 -457.51782
24.754477 -79.609283 -456.61111
24.87361 -81.12394 -456.92413
24.856693 -83.256676 -458.0376
19.972786 -76.535332 -455.09283
20.116451 -78.089058 -455.31488
22.066986 -74.432175 -455.18069
22.193029 -75.992882 -455.47452
22.330904 -77.578186 -455.72369
23.55081 -78.610382 -456.14767
24.239656 -73.598969 -455.61386
24.386662 -75.242851 -455.88495
24.509056 -76.732269 -456.12595
20.44245 -68.729668 -453.99918
20.591099 -70.27668 -454.19437
20.733 -71.795372 -454.43011
20.859095 -73.395576 -454.71597
22.757727 -69.488159 -454.65576
22.896017 -71.074852 -454.91571
23.039108 -72.609665 -455.13397
24.919598 -68.386162 -455.01205
20.189722 -65.589455 -453.41327
20.307789 -67.132523 -453.73563
22.367813 -64.809937 -453.85437
22.478455 -66.328148 -454.19031
22.618999 -67.867271 -454.41833
24.512112 -63.437138 -454.12247
24.622643 -65.068604 -454.4888
24.772491 -66.791229 -454.80811
21.068037 -62.391899 -453.08017
21.981068 -60.111885 -452.98993
22.255287 -63.212624 -453.48962
23.204 -61.096996 -453.39603
24.117655 -58.787113 -453.31381
24.392035 -61.92149 -453.8092
21.705128 -56.97538 -452.50964
22.674368 -55.078754 -452.4537
22.926041 -57.966648 -452.9165
23.641666 -53.017395 -452.30447
23.885756 -56.082355 -452.91864
24.838921 -54.047241 -452.81155
23.378056 -49.878429 -451.76465
23.518055 -51.468189 -452.00629
23.925867 -42.87101 -450.78195
24.042297 -44.418793 -451.10931
24.171448 -45.980869 -451.3941
24.299385 -47.497643 -451.63025
23.796236 -41.311954 -450.51514
24.616945 -37.911732 -450.27045
24.744978 -39.48175 -450.55328
20.999187 4.6606536 -447.80405
22.45611 2.4964402 -447.68323
23.052433 2.6292994 -444.85251
20.206545 6.1601987 -444.60352
19.895086 5.8375983 -447.58142
20.144102 6.2589827 -445.74863
21.22368 4.7450514 -445.81812
22.03974 4.9977498 -443.86322
25.402525 -100.78028 -459.95551
25.58757 -102.40092 -460.09607
25.751791 -103.28728 -459.99295
26.614267 -101.61097 -460.36093
26.796087 -102.85398 -460.28741
26.96347 -103.68937 -459.98264
27.614267 -100.29362 -460.46344
27.814255 -102.15732 -460.64905
27.955177 -103.15685 -460.44803
28.814344 -101.14216 -460.7919
29.017899 -102.57674 -460.75958
29.869944 -100.28155 -460.95895
30.048271 -101.82407 -461.01987
25.043245 -96.656097 -459.36716
26.231955 -97.639465 -459.86801
26.387669 -99.277519 -460.09402
27.144674 -95.106621 -459.71643
28.361849 -96.087952 -460.10956
28.486773 -97.619041 -460.39731
29.294479 -94.061768 -460.06879
29.710468 -98.681595 -460.80737
25.684074 -91.139923 -458.76678
26.872965 -92.045624 -459.21481
27.001171 -93.522156 -459.4794
27.83329 -89.770416 -459.02637
29.006086 -90.639015 -459.48477
29.163017 -92.368095 -459.81567
26.13102 -84.644417 -458.46405
26.316467 -85.858315 -458.34869
26.522751 -87.413422 -458.30133
26.629829 -88.809563 -458.55557
27.196281 -84.075607 -458.70575
28.370718 -84.594826 -459.04706
28.55521 -85.851883 -458.91614
28.760839 -87.408676 -458.87579
29.963558 -88.185867 -459.22437
25.937838 -80.376411 -457.04431
26.000202 -81.853401 -457.60181
26.004871 -83.319633 -458.30405
27.108736 -80.887253 -457.38675
27.111027 -82.868065 -458.36313
28.136957 -79.56958 -457.36383
28.274677 -81.248489 -457.74469
28.266678 -83.320793 -458.80447
29.386614 -81.872932 -458.33878
29.387173 -83.298264 -459.07312
25.690008 -77.727638 -456.67255
26.503492 -73.959335 -456.30728
26.646334 -75.678772 -456.59512
26.895872 -78.569565 -457.0687
27.847466 -76.69519 -457.07837
28.775667 -74.320587 -456.9321
29.068016 -77.744774 -457.48703
29.989683 -75.390671 -457.37445
25.058409 -69.950363 -455.2522
25.178738 -71.451729 -455.56009
26.367062 -72.293877 -455.98547
27.188221 -68.559425 -455.56384
27.333651 -70.178131 -455.80563
28.510185 -71.000565 -456.271
28.654737 -72.764389 -456.61496
29.533573 -69.661438 -456.30469
26.798475 -63.891579 -454.75406
26.913527 -65.506332 -455.12314
27.054966 -67.035583 -455.3306
29.00647 -63.398121 -455.20114
29.127686 -64.890587 -455.48761
29.243679 -66.495422 -455.84781
29.37883 -68.028465 -456.08636
25.338717 -59.782654 -453.72852
26.325689 -58.217636 -453.7644
26.538937 -60.754261 -454.19019
26.670446 -62.291309 -454.44394
27.524298 -59.193798 -454.23782
28.730383 -60.229847 -454.70505
28.867538 -61.765633 -454.94431
29.679188 -57.82336 -454.46106
25.100319 -57.162312 -453.35162
25.889235 -52.965767 -452.83575
26.049036 -55.021465 -453.25623
27.261415 -56.017754 -453.71329
28.198772 -53.736744 -453.52032
28.45734 -56.867138 -454.07614
29.415705 -54.707378 -453.93137
25.484798 -48.299419 -452.09644
25.602261 -49.811516 -452.35782
25.74374 -51.352531 -452.57037
27.654472 -47.519268 -452.50977
27.790112 -49.009663 -452.77881
27.931252 -50.60516 -453.00946
28.068026 -52.139748 -453.24487
30.030991 -48.423454 -453.08337
26.211103 -43.569859 -451.55188
26.336212 -45.134563 -451.84943
26.467787 -46.677361 -452.10416
28.383766 -42.558651 -451.87848
28.496964 -44.026325 -452.20215
28.632366 -45.586647 -452.46979
29.843262 -46.687119 -452.82489
25.962097 -40.451786 -450.96487
26.091011 -42.008366 -451.23477
26.929735 -38.327625 -450.82196
28.14377 -39.358788 -451.24335
28.267443 -40.924641 -451.52838
29.219303 -38.254028 -451.20593
26.830856 -36.790726 -450.40689
27.64123 -32.639618 -449.78741
27.768902 -34.179733 -450.07471
27.898802 -35.734482 -450.34695
29.091072 -36.765156 -450.85898
29.83675 -32.107662 -450.23779
29.969065 -33.614719 -450.51685
30.097046 -35.172615 -450.79361
28.646379 -31.056772 -449.72943
29.632984 -29.23889 -449.59933
30.20372 -102.70271 -460.89038
31.117838 -101.33024 -461.26041
31.256191 -103.42232 -460.68677
32.014214 -99.207481 -461.37228
32.1702 -100.76658 -461.52676
32.354919 -102.28783 -461.58917
32.593914 -103.14417 -461.422
32.815701 -103.97174 -460.48782
33.374348 -101.55194 -461.87473
33.505627 -102.5882 -461.84109
33.748344 -103.67808 -461.27713
34.395138 -100.50457 -462.01559
34.557476 -102.04556 -462.1228
34.7174 -103.02568 -461.9437
34.903374 -103.93823 -461.37222
30.510881 -95.015289 -460.51123
30.653267 -96.53038 -460.75226
31.869419 -97.601242 -461.15753
32.760315 -94.772804 -460.86423
32.897678 -96.338753 -461.12894
34.114124 -97.291901 -461.55804
34.246052 -98.991425 -461.83575
34.961674 -93.977806 -461.21365
35.105888 -95.539566 -461.41214
31.155499 -89.015213 -459.59894
31.286987 -90.54541 -459.88135
31.422939 -92.148178 -460.13394
31.539223 -93.64135 -460.4761
33.488865 -89.987579 -460.31934
33.618542 -91.548706 -460.59244
33.756828 -93.068336 -460.8223
30.572296 -84.106857 -459.52106
30.744152 -85.330254 -459.44366
30.975761 -86.876732 -459.26459
32.186687 -87.596672 -459.55673
32.825821 -84.022285 -460.0256
33.004238 -85.282539 -459.9184
33.369286 -88.390251 -459.98932
33.904022 -83.534813 -460.22729
34.264034 -86.056419 -459.99991
30.297014 -78.793327 -457.86124
30.452446 -80.330269 -458.01791
30.497561 -82.767265 -459.13232
31.598703 -80.978539 -458.51932
31.640738 -83.257385 -459.60516
32.573608 -78.993271 -458.39227
32.758942 -81.415337 -459.00879
32.73217 -82.820877 -459.73755
33.815746 -80.006409 -458.69604
33.869751 -82.094933 -459.62787
34.988907 -80.87149 -459.18375
30.999065 -73.730095 -457.25867
31.213034 -76.345276 -457.76431
32.217503 -74.726448 -457.70752
32.39185 -77.23201 -458.13522
33.408459 -75.582977 -458.08661
34.635277 -76.568436 -458.45383
30.738148 -70.622574 -456.72134
30.858305 -72.192863 -457.04547
31.643295 -68.174217 -456.65036
32.853645 -69.060616 -457.00882
32.97139 -70.621231 -457.33658
33.101204 -72.190071 -457.61661
34.309017 -73.138374 -458.0347
35.005608 -68.060951 -457.37018
31.280928 -63.564426 -455.73499
31.391495 -65.037971 -456.10794
31.515841 -66.693718 -456.39621
33.56958 -64.045204 -456.35846
33.688339 -65.562813 -456.69556
33.819065 -67.176254 -456.96176
30.890738 -58.817657 -454.91299
31.026392 -60.428825 -455.15933
31.15526 -62.013508 -455.43588
33.045311 -57.843273 -455.31357
33.181973 -59.337238 -455.5094
33.333065 -60.919487 -455.70023
33.450459 -62.458179 -456.0144
30.401091 -53.148514 -453.9642
30.627974 -55.751842 -454.37576
31.626993 -54.173199 -454.34094
31.823906 -56.795269 -454.89902
32.639923 -52.809471 -454.38516
32.828514 -55.181721 -454.82416
33.856476 -53.84486 -454.79959
34.033237 -56.208981 -455.30038
30.146744 -49.93998 -453.41006
30.26288 -51.54435 -453.72366
32.262741 -48.166531 -453.50012
32.378349 -49.658154 -453.8577
32.498146 -51.275841 -454.1636
34.471909 -47.628304 -453.90717
34.591267 -49.181046 -454.22437
34.720184 -50.693893 -454.52087
30.642321 -42.407597 -452.35416
30.752373 -44.023365 -452.68088
30.904091 -45.579578 -452.85913
32.144527 -46.566395 -453.20096
32.976761 -43.43639 -453.0415
33.140926 -44.946148 -453.24423
34.354954 -46.047832 -453.57724
30.419432 -39.291573 -451.64127
30.531384 -40.884708 -451.97641
31.431475 -37.70142 -451.54202
32.62476 -38.802254 -452.03647
32.757069 -40.282864 -452.32935
32.85482 -41.858597 -452.73914
31.310148 -36.206448 -451.21939
32.165672 -32.826599 -450.81406
32.301331 -34.347515 -451.08661
33.513592 -35.381233 -451.50467
33.62661 -36.947563 -451.85455
34.4515 -33.005291 -451.31171
30.831799 -30.230675 -450.09146
31.785589 -27.868608 -449.81491
32.041489 -31.24238 -450.53293
32.984848 -28.884789 -450.31964
30.301748 -23.745438 -448.90543
30.449045 -25.333794 -449.11795
31.654577 -26.323328 -449.56247
32.454098 -22.450972 -449.13223
32.575359 -23.950956 -449.44559
33.778908 -24.971094 -449.92569
31.110529 -19.865143 -448.45013
31.246536 -21.381393 -448.71567
32.039261 -17.487823 -448.31332
33.255531 -18.488077 -448.72043
33.400139 -20.056215 -448.92215
34.607159 -21.035664 -449.36322
31.776508 -14.351699 -447.78561
31.899338 -15.93591 -448.11111
34.493958 -6.2604709 -447.15292
35.636036 -101.52464 -462.29227
35.817005 -102.64958 -462.16315
36.114433 -103.86688 -461.34061
37.263554 -103.9334 -461.43637
38.426098 -104.13293 -461.29584
40.139076 -101.70529 -463.35135
36.300198 -96.575432 -461.93555
38.519188 -96.23204 -462.40851
35.694279 -89.666672 -460.8721
35.822208 -91.291328 -461.19153
35.970852 -92.8367 -461.36658
35.504875 -86.840393 -460.19608
35.605431 -88.165871 -460.44446
38.481728 -83.981041 -461.26144
35.152008 -69.770393 -457.71756
35.287708 -71.41996 -457.98535
39.925808 -72.897774 -459.2937
40.07481 -60.851559 -457.31232
36.530048 -44.968201 -453.88452
36.34285 -28.5369 -450.98892
37.431679 -15.238356 -449.36816
35.456253 -4.6429486 -447.29611
40.34827 4.1009731 -447.02011
36.381481 11.472401 -444.91425
36.498173 9.9229717 -445.21329
40.453152 -103.84662 -463.44559
42.352745 -102.08531 -463.56583
42.435162 -103.45916 -463.73843
42.502903 -103.25457 -464.54788
40.61916 -94.346764 -462.56793
43.336102 -98.489021 -463.32394
42.619659 -91.195312 -462.47772
44.405056 -86.420685 -462.33487
42.833458 -81.034683 -461.32596
42.509556 -76.757355 -460.40851
44.634331 -75.179771 -460.65005
42.460636 -62.584171 -458.18051
44.395599 -58.672073 -458.0166
44.516518 -60.176563 -458.2713
44.793209 -49.708908 -456.60684
41.525154 -22.972178 -451.3475
42.481499 -20.866724 -451.22836
42.463581 5.978241 -447.22397
46.471764 -84.850784 -462.98193
48.506748 -82.306595 -463.26508
50.414536 -63.049187 -460.02087
46.549156 -57.504917 -458.32578
46.442543 -56.018929 -458.01755
48.407806 -52.51046 -457.86691
50.420364 -35.490074 -455.52029
47.694859 11.572102 -447.32187
48.365555 17.308699 -446.52151
49.590649 16.307543 -446.91693
52.42754 -60.050442 -459.94232
52.561447 -61.64085 -460.22598
54.567474 -58.484615 -460.15671
50.567047 -50.959904 -458.05475
54.447548 -42.976395 -457.49515
50.545452 -37.037743 -455.78787
52.472046 -32.539631 -455.35916
52.341072 -31.020416 -455.07986
54.374729 -27.900492 -454.89484
54.486233 -29.401953 -455.20264
54.973671 6.3039527 -449.51505
54.415787 12.816164 -448.50366
56.531315 -83.489525 -465.25659
56.416012 -82.400436 -465.12704
60.620674 -63.071602 -462.13989
56.342678 -38.254063 -457.05283
56.471508 -39.818615 -457.32925
56.599117 -41.39669 -457.634
58.503025 -36.917915 -457.32886
58.366035 -35.29567 -456.98734
60.476467 -32.921749 -456.85449
56.539608 -26.496977 -455.02194
58.759407 -25.685902 -455.28864
60.472057 -19.087343 -454.66537
58.491428 5.0973668 -450.34979
56.518375 14.959641 -448.57132
56.382637 16.52511 -448.34485
58.438103 20.134504 -447.66205
58.513168 18.636398 -448.26654
63.451988 -106.91441 -467.28513
62.652275 -87.499146 -466.27609
62.375969 -70.468964 -463.67105
64.451668 -68.036201 -463.65662
64.583557 -69.595795 -463.90399
64.317474 -38.900349 -459.30173
62.770439 -32.938564 -457.29565
61.832565 -21.677586 -455.30603
62.554802 -16.679741 -454.66617
63.927189 -5.680737 -453.29544
62.424694 -1.0582376 -452.10376
65.255821 6.3134136 -451.40488
62.419449 13.014772 -449.82794
62.528152 11.466863 -450.16251
62.985405 20.289051 -448.55829
66.327637 -105.2153 -468.69308
68.358444 -100.6412 -469.01733
69.59182 -101.55651 -469.28766
70.517357 -99.314285 -469.22971
68.500862 -89.175819 -467.52856
68.661118 -77.326958 -465.82327
70.472313 -71.634789 -465.27527
66.441292 -64.322754 -463.36783
67.307564 -61.402073 -463.28503
68.598106 -34.641937 -458.84695
68.454994 -18.671623 -456.05603
68.423439 -4.3042736 -453.68143
67.693642 4.30265 -452.23578
66.479904 5.3081217 -451.83798
72.53038 -96.425926 -469.43079
74.499199 -92.92691 -469.37695
74.358795 -91.112915 -469.07101
73.393456 -79.814316 -467.26263
72.341248 -24.303715 -457.66061
74.30275 -20.344032 -457.29034
72.365723 -10.471385 -455.42429
74.350906 -6.516706 -455.07608
74.548157 -8.8778896 -455.52124
74.446022 6.0468993 -453.23395
72.390739 17.467957 -450.97183
80.473129 -107.93625 -471.06131
78.549431 -99.368759 -470.57446
80.579178 -96.53981 -470.63892
76.379364 -87.738358 -468.94238
77.596741 -88.663513 -469.2551
76.57457 -75.833992 -466.99341
78.749184 -75.118576 -467.29166
76.732018 -37.691418 -461.63733
78.3265 -26.854822 -459.13019
78.429253 -28.375349 -459.35623
80.501991 -25.458513 -459.20264
76.427269 -17.722748 -457.33734
76.558113 -19.529551 -457.54813
76.551674 -5.1600475 -455.24527
82.658508 -106.86785 -471.99554
84.443359 -101.07121 -471.71124
84.515274 -74.831902 -468.21057
82.43998 -63.558952 -466.14694
82.573654 -65.144653 -466.3743
84.527039 -61.071186 -466.08218
-0.46073151 -20.962698 -441.31427
-3.2304845 11.694691 -435.77115
-2.6997871 9.9899426 -438.75125
-2.1945975 13.249375 -435.71613
-2.0909293 11.455592 -436.08029
-2.0714307 10.585842 -436.61087
-1.2372329 9.9859228 -437.92981
-0.98458362 12.277665 -436.15283
-1.0078808 10.48774 -437.12109
-3.6993027 17.31152 -434.69122
-3.5646372 15.765774 -434.95941
-3.4453957 14.23177 -435.26303
-2.6321878 18.363653 -434.77921
-1.4403422 17.398918 -435.29868
-1.3029948 15.854569 -435.54346
2.9127922 -101.84259 -454.65308
3.9145031 -100.5266 -454.84641
4.2246447 -102.54539 -454.84787
4.4221706 -103.84375 -454.68439
2.321295 -96.46595 -454.16034
2.4621739 -97.978836 -454.4184
2.6019633 -99.537079 -454.64102
3.4441328 -95.45929 -454.3074
1.8857949 -91.277863 -453.20334
2.0718374 -92.986435 -453.52722
3.3005266 -93.979645 -453.99997
4.1707559 -90.899445 -453.6568
4.3219571 -92.404541 -453.92773
1.4012049 -86.217728 -452.69727
1.6807092 -88.014961 -452.59512
1.7912607 -89.602142 -452.90845
2.305769 -84.695389 -453.008
2.6690645 -86.975288 -452.8541
3.5534658 -85.397102 -453.31546
3.9110274 -87.728325 -453.16245
4.0629039 -89.265465 -453.38156
2.2489467 -81.483604 -451.79141
2.2717748 -83.322205 -452.56113
3.2844512 -80.136124 -451.83746
3.4319534 -82.155457 -452.30505
3.4040999 -84.154953 -453.16928
4.4612489 -81.060516 -452.19763
4.5340829 -83.33609 -453.10779
2.8550832 -75.498688 -451.10318
2.9858456 -77.104034 -451.31329
3.1409864 -78.617439 -451.56363
1.0218256 -70.88121 -451.09015
